-11.259052 -8.054748 -0.887219
-11.900154 -6.110599 -0.779063
-18.868217 -12.150416 1.306965
-15.717154 -9.066988 0.739244
-11.818299 -7.610537 -0.654786
-12.397364 -7.151852 -0.750079
-18.542341 -11.940564 2.707937
-16.579350 -9.564377 1.562523
-10.112365 -7.234405 -0.506561
-11.735249 -6.025921 -0.460673
-15.345551 -8.852616 3.230075
-13.492158 -8.688438 -0.373420
-11.854885 -8.421714 -0.253828
-14.955442 -8.561596 -0.501521
-6.406458 -4.095525 -2.128567
-8.118530 -4.647644 -1.870959
-11.690253 -5.953912 -0.152731
-7.672610 -4.904951 -1.416752
-9.125605 -5.224168 -1.338443
-11.941273 -8.483084 0.085133
-14.951107 -8.559114 -0.100128
-9.365494 -5.987179 -1.197345
-11.768201 -5.993611 -1.232810
-20.074135 -12.833007 0.554407
-12.253382 -6.240716 0.160088
-10.704534 -6.843202 -0.888418
-10.850245 -6.211478 -1.020636
-19.602850 -13.925870 0.699802
-23.584633 -13.501579 0.474356
-10.917974 -7.756132 -0.858310
-11.909677 -6.065665 -0.778365
-20.028780 -12.804012 1.384406
-14.918155 -8.540250 0.700328
-11.782875 -7.532564 -0.651436
-12.427946 -7.114671 -0.750498
-13.774978 -8.806077 2.007432
-15.386171 -8.808177 1.447311
-10.781427 -7.659129 -0.538802
-11.676800 -5.947060 -0.457602
-22.461912 -14.359468 7.143406
-14.603006 -8.359836 3.067925
-13.648929 -8.725496 -0.376956
-11.874400 -8.373368 -0.253618
-15.006095 -8.521188 -0.502219
-6.401198 -4.060759 -2.122097
-8.902128 -5.055060 -2.047465
-13.726913 -8.708008 0.000000
-11.714534 -5.914874 -0.152778
-7.766446 -4.926837 -1.430895
-9.989152 -5.672325 -1.462186
-11.977346 -8.445962 0.085179
-14.987846 -8.510826 -0.100174
-9.453499 -5.997061 -1.205913
-11.810380 -5.963268 -1.235041
-21.158850 -13.422640 0.583067
-12.221533 -6.170866 0.159390
-10.778895 -6.837859 -0.892604
-10.844125 -6.157820 -1.018032
-19.778770 -13.947226 0.704340
-14.944085 -8.485976 0.299972
-10.719880 -7.559246 -0.840658
-12.233768 -6.177044 -0.798133
-14.775982 -9.373509 1.019061
-14.920070 -8.472339 0.699026
-11.768606 -7.465707 -0.649202
-12.734061 -7.231017 -0.767455
-13.738581 -8.715409 1.997682
-16.328588 -9.272163 1.532907
-10.341016 -7.292085 -0.515517
-11.679644 -5.897257 -0.456904
-22.998022 -14.589364 7.297662
-14.690270 -8.341847 3.080122
-13.777229 -8.739926 -0.379654
-11.985471 -8.389203 -0.255364
-24.365158 -13.723464 -0.813837
-6.418593 -4.040442 -2.123176
-8.875291 -4.998930 -2.037266
-22.886961 -14.407116 0.000000
-11.770877 -5.891849 -0.153243
-7.790286 -4.903908 -1.432125
-12.065987 -6.796062 -1.762704
-19.950090 -13.964020 0.141532
-26.790262 -15.089383 -0.178705
-9.578711 -6.029704 -1.219193
-11.710034 -5.861395 -1.222400
-20.907763 -13.161231 0.574879
-12.353876 -6.183667 0.160833
-10.785814 -6.789564 -0.891209
-11.001025 -6.196232 -1.030725
-19.096874 -13.366813 0.678391
-14.984068 -8.439647 0.300181
-10.814878 -7.569850 -0.846030
-11.633923 -5.823298 -0.757668
-14.849164 -9.347403 1.021851
-15.033129 -8.467279 0.702933
-11.662717 -7.341565 -0.641943
-13.002854 -7.323745 -0.782109
-18.012489 -11.338684 2.613366
-14.783821 -8.326859 1.385149
-10.628351 -7.439290 -0.528543
-11.725182 -5.868977 -0.457881
-14.719299 -8.290518 3.080122
-13.821188 -8.700301 -0.380027
-10.674609 -7.416282 -0.226881
-27.013376 -15.091076 -0.900527
-6.501266 -4.060863 -2.145820
-8.906384 -4.975569 -2.040404
-23.144064 -14.456396 0.000000
-11.827201 -5.868500 -0.153709
-7.958209 -4.970909 -1.459796
-12.210879 -6.821631 -1.780382
-20.153107 -14.001554 0.142624
-27.080231 -15.128424 -0.180286
-9.619941 -6.008870 -1.221763
-11.805346 -5.857655 -1.230208
-21.896458 -13.677109 0.600747
-12.124582 -6.016056 0.157574
-10.528553 -6.576414 -0.868050
-11.071315 -6.185011 -1.035282
-19.107300 -13.274971 0.677111
-27.118458 -15.149779 0.542211
-11.139562 -7.739312 -0.869311
-11.704260 -5.807498 -0.760924
-14.986697 -9.361089 1.029061
-15.163780 -8.471275 0.707655
-12.145775 -7.586573 -0.667070
-13.230601 -7.391301 -0.794251
-14.243573 -8.896914 2.062029
-14.875448 -8.310198 1.391007
-10.874169 -7.554928 -0.539453
-11.792150 -5.851108 -0.459696
-23.030502 -14.385463 7.275921
-15.421489 -8.615245 3.220747
-20.034445 -12.514046 -0.549661
-10.809084 -7.453901 -0.229185
-27.296715 -15.124585 -0.908206
-6.521950 -4.042203 -2.147977
-8.982023 -4.976766 -2.053740
-21.049025 -13.045858 0.000000
-11.854794 -5.830710 -0.153802
-7.935199 -4.918113 -1.452417
-9.926527 -5.500098 -1.444509
-20.350040 -14.033307 0.143671
-17.994116 -9.970193 -0.119563
-9.566488 -5.929161 -1.212339
-11.700638 -5.754889 -1.217196
-21.036530 -13.038115 0.575902
-12.059372 -5.931330 0.156456
-10.849912 -6.724607 -0.892604
-12.982909 -7.193581 -1.211680
-19.242395 -13.269479 0.680253
-27.426552 -15.196525 0.547307
-11.051493 -7.621065 -0.860357
-11.688628 -5.748982 -0.758598
-19.455486 -12.058208 1.333012
-14.396188 -7.976651 0.670530
-12.036334 -7.459933 -0.659625
-13.214393 -7.321841 -0.791738
-18.276815 -11.327686 2.640178
-15.071752 -8.350967 1.406629
-10.841251 -7.476084 -0.536522
-12.027733 -5.915769 -0.468072
-19.062201 -10.561999 3.973379
-20.169781 -12.500916 -0.552174
-11.019854 -7.542629 -0.233094
-18.287790 -10.049645 -0.607294
-6.549143 -4.027485 -2.152290
-8.947778 -4.917050 -2.041973
-21.264793 -13.077077 0.000000
-11.932597 -5.817340 -0.154547
-7.908548 -4.863471 -1.444423
-10.049989 -5.522746 -1.459661
-19.913683 -13.630082 0.140253
-17.993752 -9.888062 -0.119330
-9.644715 -5.931150 -1.219621
-11.727814 -5.717505 -1.217939
-22.280945 -13.701973 0.608657
-11.835525 -5.770016 0.153290
-10.591202 -6.513205 -0.869445
-10.925550 -6.003891 -1.017707
-19.206106 -13.145776 0.677344
-18.170069 -9.984954 0.361893
-10.880380 -7.447165 -0.845007
-11.708623 -5.708149 -0.758598
-14.816978 -9.111905 1.013014
-24.574642 -13.504444 1.142409
-12.092931 -7.436714 -0.661300
-13.271376 -7.292987 -0.793622
-14.285044 -8.784784 2.059104
-16.260798 -8.935757 1.514681
-10.867280 -7.438198 -0.536522
-12.041121 -5.870247 -0.467793
-15.184668 -8.344394 3.159045
-20.097473 -12.359218 -0.549010
-10.824465 -7.353539 -0.228417
-18.294674 -9.970440 -0.606363
-6.576315 -4.012625 -2.156603
-8.985552 -4.897048 -2.046680
-20.439598 -12.471490 0.000000
-11.963634 -5.780872 -0.154687
-7.878241 -4.807012 -1.435814
-9.908936 -5.400284 -1.436427
-20.844549 -14.160625 0.146460
-11.576235 -6.308948 -0.076624
-9.740049 -5.943019 -1.229046
-12.066853 -5.830748 -1.251027
-22.120409 -13.497058 0.602981
-11.783567 -5.693863 0.152359
-10.661561 -6.505291 -0.873351
-10.911436 -5.946638 -1.014452
-19.681826 -13.370736 0.692471
-18.039762 -9.831515 0.358612
-11.266220 -7.653643 -0.872893
-11.847129 -5.724576 -0.766272
-20.064146 -12.242402 1.368825
-14.486619 -7.895082 0.672159
-12.088119 -7.375725 -0.659625
-13.451081 -7.330723 -0.802834
-14.529138 -8.865145 2.089816
-16.127361 -8.789273 1.499385
-10.975827 -7.456366 -0.540593
-12.014747 -5.805570 -0.465978
-19.605394 -10.684772 4.070956
-20.184872 -12.316064 -0.550220
-11.005920 -7.420797 -0.231698
-18.343433 -9.914126 -0.606829
-6.735267 -4.077418 -2.204048
-9.178570 -4.960767 -2.086688
-21.403473 -12.957306 0.000000
-12.293975 -5.887651 -0.158691
-8.070791 -4.885923 -1.467790
-10.021975 -5.416605 -1.450064
-19.006769 -12.815411 0.133232
-11.605223 -6.272307 -0.076671
-10.009089 -6.059336 -1.260318
-12.176931 -5.831599 -1.260322
-22.605255 -13.684846 0.614891
-11.348840 -5.435021 0.146491
-10.950454 -6.629222 -0.895115
-10.946155 -5.916099 -1.015754
-18.995733 -12.807969 0.666755
-18.052858 -9.757079 0.358193
-11.964746 -8.067290 -0.924826
-11.841826 -5.671115 -0.764644
-15.033948 -9.101302 1.023479
-11.430547 -6.177899 0.529358
-16.044619 -9.713145 -0.873668
-11.716021 -6.332190 -0.697952
-18.635567 -11.281663 2.674789
-16.207043 -8.759466 1.503941
-11.071375 -7.464931 -0.544012
-11.980857 -5.737698 -0.463884
-24.002527 -14.530731 7.518176
-14.692117 -7.940690 3.044966
-20.415884 -12.359437 -0.555338
-10.815711 -7.237754 -0.227161
-18.180584 -9.744258 -0.600312
-6.756063 -4.057848 -2.206205
-9.714393 -5.206629 -2.204359
-24.404396 -14.657845 0.000000
-12.003701 -5.697209 -0.154687
-8.223328 -4.939121 -1.492386
-10.282138 -5.510923 -1.484914
-19.044743 -12.744531 0.133186
-11.598844 -6.216639 -0.076485
-10.033589 -6.026406 -1.260746
-12.161234 -5.771978 -1.256604
-22.460917 -13.490546 0.609680
-11.259340 -5.343920 0.145094
-12.239178 -7.351133 -0.998355
-11.820607 -6.335498 -1.094840
-18.977192 -12.699327 0.664544
-18.143211 -9.724228 0.359310
-11.170091 -7.474901 -0.861380
-11.901235 -5.648577 -0.767203
-11.434429 -6.128518 0.528543
-16.078428 -9.657076 -0.873668
-11.635953 -6.236529 -0.691881
-15.427925 -9.266369 2.209735
-15.260672 -8.179272 1.413464
-11.137227 -7.452909 -0.545966
-12.047762 -5.718122 -0.465699
-15.021495 -8.051080 3.107386
-20.654306 -12.405455 -0.560642
-10.997493 -7.303949 -0.230442
-18.193304 -9.669478 -0.599614
-6.680844 -3.981002 -2.177091
-9.826024 -5.222390 -2.225539
-21.493414 -12.807561 0.000000
-12.045231 -5.665487 -0.154966
-8.237124 -4.908363 -1.491771
-9.912386 -5.268290 -1.428851
-21.371546 -14.193845 0.149110
-11.669923 -6.202395 -0.076810
-9.917909 -5.909914 -1.243611
-12.278615 -5.775259 -1.266642
-20.724970 -12.349658 0.561386
-11.303263 -5.316501 0.145420
-12.323039 -7.343090 -1.003098
-12.050355 -6.404589 -1.114042
-19.008083 -12.624159 0.664079
-11.735442 -6.237217 0.231977
-11.013227 -7.314400 -0.847310
-11.870292 -5.583204 -0.763947
-14.836416 -8.840769 1.005805
-11.483987 -6.103573 0.529846
-11.062868 -6.592175 -0.599879
-11.273180 -5.991532 -0.669063
-15.518160 -9.247008 2.218022
-15.278568 -8.120338 1.412487
-11.209785 -7.444943 -0.548246
-12.125528 -5.703255 -0.467932
-24.422024 -14.552670 7.617562
-14.667275 -7.795444 3.028464
-20.838335 -12.417210 -0.564457
-11.053767 -7.291387 -0.231140
-18.230661 -9.616008 -0.599847
-6.680057 -3.952150 -2.172777
-9.831972 -5.186007 -2.223186
-24.896975 -14.729899 0.000000
-12.505180 -5.833921 -0.160647
-8.269512 -4.892526 -1.494846
-9.921866 -5.233422 -1.427841
-13.382513 -8.827496 0.093177
-11.668121 -6.154508 -0.076671
-9.902197 -5.858478 -1.239327
-12.285869 -5.731607 -1.265527
-24.907446 -14.736095 0.673421
-12.371067 -5.771355 0.158924
-10.869328 -6.430665 -0.883117
-11.696630 -6.169545 -1.079544
-19.271265 -12.711889 0.671875
-11.758514 -6.202187 0.232047
-11.002827 -7.257785 -0.844751
-11.822633 -5.515499 -0.759761
-16.259451 -9.619646 1.100223
-24.667686 -13.011304 1.136222
-11.152301 -6.598082 -0.603602
-11.291945 -5.956089 -0.669063
-15.594968 -9.226515 2.224847
-11.223107 -7.403090 -0.547757
-12.393352 -5.781750 -0.477565
-25.215813 -14.918535 7.850500
-14.841357 -7.828274 3.059315
-20.911654 -12.372048 -0.565387
-13.428160 -8.790491 -0.280146
-11.854847 -6.200201 -0.389348
-6.687168 -3.924908 -2.170621
-9.933432 -5.195282 -2.242013
-25.182819 -14.780585 0.000000
-12.601711 -5.825479 -0.161625
-8.214956 -4.821615 -1.481933
-9.961171 -5.209790 -1.430872
-13.409899 -8.778537 0.093153
-11.689533 -6.113740 -0.076671
-9.922586 -5.823876 -1.239327
-12.204578 -5.641894 -1.255117
-21.541002 -12.643089 0.581206
-12.500054 -5.778486 0.160321
-10.898591 -6.396724 -0.883675
-11.742824 -6.141612 -1.081822
-20.462946 -13.395681 0.711787
-10.934580 -7.158116 -0.837588
-11.939680 -5.519438 -0.766040
-16.317038 -9.576981 1.101851
-29.823416 -15.597939 1.371184
-12.212500 -7.167898 -0.659625
-11.532125 -6.031414 -0.682042
-15.647623 -9.184080 2.227772
-14.611406 -7.641909 1.346094
-13.432449 -8.793300 -0.654085
-21.459572 -9.920263 -0.825583
-25.487656 -14.959504 7.918828
-14.718652 -7.697999 3.028464
-25.313955 -14.857553 -0.683006
-20.390009 -13.241429 -0.424373
-11.881042 -6.158549 -0.389464
-6.828015 -3.974001 -2.211596
-10.022053 -5.194940 -2.257702
-25.440792 -14.806898 0.000000
-12.324770 -5.642721 -0.157807
-8.307726 -4.835213 -1.495461
-9.962584 -5.164115 -1.428346
-22.029827 -14.306340 0.152667
-11.669250 -6.048766 -0.076392
-9.919805 -5.773466 -1.236328
-12.188964 -5.580544 -1.251399
-21.227757 -12.354853 0.571529
-12.430234 -5.691007 0.159157
-11.021974 -6.414944 -0.891767
-11.828966 -6.131555 -1.087680
-20.635977 -13.401163 0.716093
-14.778100 -7.660242 0.290548
-10.277788 -6.674476 -0.785399
-11.981615 -5.485613 -0.767435
-20.500433 -11.931540 1.381383
-11.560421 -5.992354 0.530497
-12.221422 -7.113039 -0.658695
-11.603804 -6.014842 -0.684973
-14.394430 -8.377761 2.044968
-14.823373 -7.683709 1.363018
-11.312668 -7.346534 -0.549548
-21.441265 -9.816580 -0.823489
-25.609100 -14.904857 7.939533
-14.676894 -7.607781 3.014114
-25.575611 -14.885365 -0.688589
-13.541147 -8.726676 -0.281193
-11.945142 -6.138970 -0.390860
-6.908562 -3.988661 -2.233162
-10.088965 -5.185025 -2.268685
-23.912693 -13.806003 0.000000
-12.293397 -5.576533 -0.157155
-8.273209 -4.776540 -1.486237
-9.959374 -5.118424 -1.425316
-20.479218 -13.197959 0.141601
-11.690292 -6.007996 -0.076392
-12.250941 -7.073086 -1.523777
-12.295416 -5.577449 -1.260322
-25.765942 -14.875977 0.692311
-12.413599 -5.631059 0.158691
-11.027021 -6.366456 -0.890372
-11.860935 -6.095694 -1.088657
-20.722961 -13.355041 0.717489
-12.264963 -6.303336 0.240704
-10.311090 -6.645046 -0.786166
-12.040692 -5.461902 -0.769993
-20.379417 -11.766065 1.370453
-11.567048 -5.944656 0.529846
-12.453797 -7.190205 -0.669862
-11.713548 -6.019947 -0.690207
-15.516959 -8.958722 2.199986
-16.608854 -8.535793 1.524445
-11.912714 -7.677222 -0.577392
-21.555494 -9.778008 -0.826560
-25.450171 -14.693666 7.874311
-17.073399 -9.857333 -0.458749
-13.559904 -8.675257 -0.280984
-11.837194 -6.033955 -0.386671
-6.938463 -3.975304 -2.238554
-10.155027 -5.176478 -2.279668
-26.019949 -14.907799 0.000000
-12.355596 -5.555418 -0.157713
-8.234133 -4.717641 -1.476398
-9.933871 -5.063745 -1.419255
-13.342731 -8.536315 0.092061
-11.695896 -5.961929 -0.076299
-12.374402 -7.089756 -1.536200
-12.284785 -5.523580 -1.257347
-14.142806 -8.102941 0.379282
-12.472331 -5.607905 0.159203
-11.210799 -6.423085 -0.903486
-11.770975 -6.000200 -1.078568
-21.299278 -13.626697 0.735874
-12.342809 -6.291690 0.241821
-10.339794 -6.615118 -0.786678
-12.863626 -5.783843 -0.821388
-24.406361 -13.983315 1.638125
-11.576015 -5.900821 0.529358
-13.756880 -7.881829 -0.738542
-11.922064 -6.077217 -0.701302
-14.960962 -8.571692 2.117115
-15.127515 -7.711181 1.386125
-11.685609 -7.476134 -0.565180
-18.802277 -8.454024 -0.719907
-25.629505 -14.684099 7.914687
-14.910645 -7.600633 3.051423
-14.961674 -8.572101 -0.401243
-13.613738 -8.642875 -0.281472
-12.040178 -6.084570 -0.392606
-6.972390 -3.962478 -2.245023
-10.218544 -5.163997 -2.289866
-14.985128 -8.516198 0.000000
-12.426064 -5.535040 -0.158365
-8.346766 -4.743551 -1.493616
-9.955029 -5.030828 -1.419760
-13.382579 -8.496119 0.092130
-12.266411 -6.198898 -0.079879
-9.954528 -5.657257 -1.233330
-12.194849 -5.432048 -1.246194
-12.960795 -7.365749 -1.042441
-11.599706 -5.861975 -1.060993
-12.271889 -6.201666 0.240005
-10.342604 -6.566148 -0.785143
-20.153637 -8.977194 -1.284872
-14.803554 -8.413007 0.991619
-12.752571 -7.247413 -0.683263
-15.888235 -9.029442 2.243859
-14.972872 -7.566622 1.369527
-11.613785 -7.373176 -0.560458
-21.621552 -9.631058 -0.826560
-26.029957 -14.793083 8.022356
-14.750943 -7.454470 3.013397
-11.553054 -6.565715 -0.309214
-13.547183 -8.531116 -0.279448
-11.790690 -5.904339 -0.383762
-7.007001 -3.948243 -2.251493
-10.290009 -5.152853 -2.301633
-15.016241 -8.461217 0.000000
-8.336548 -4.697403 -1.488697
-10.125963 -5.070705 -1.441478
-20.697536 -13.033935 0.142159
-12.010077 -6.014199 -0.078066
-10.002913 -5.636352 -1.236757
-12.152729 -5.359993 -1.239874
-14.977339 -8.439297 0.400033
-42.143848 -18.587654 0.536235
-11.027035 -6.213415 -0.885070
-11.635371 -5.826560 -1.062295
-21.693977 -13.661427 0.746114
-12.001298 -6.009803 0.234281
-10.400378 -6.549468 -0.787701
-20.350819 -8.975781 -1.295337
-20.449331 -11.522607 1.366965
-72.573730 -36.342224 3.306734
-13.088863 -7.375196 -0.699828
-12.197408 -6.108007 -0.714909
-15.575336 -8.776251 2.195111
-16.437101 -8.231089 1.500686
-11.671169 -7.349728 -0.561923
-20.881290 -9.209747 -0.796965
-26.265770 -14.800001 8.078260
-15.052618 -7.537790 3.069360
-24.376934 -13.735697 -0.651089
-20.188444 -12.620038 -0.415577
-12.096687 -6.007479 -0.393071
-7.073849 -3.955061 -2.268746
-10.352708 -5.141381 -2.311831
-26.911308 -15.046386 0.000000
-43.136143 -18.854685 -0.548062
-8.421077 -4.708310 -1.500995
-10.039661 -4.985915 -1.426831
-20.747429 -12.969466 0.142206
-12.115935 -6.017038 -0.078624
-10.198585 -5.702132 -1.258605
-14.385564 -6.287889 -1.465542
-14.966848 -8.368117 0.399009
-42.098972 -18.401339 0.534885
-13.220872 -7.391924 -1.059182
-11.668912 -5.795037 -1.063596
-20.918688 -13.076523 0.717954
-11.670127 -5.795640 0.227440
-10.540510 -6.588999 -0.796655
-18.814430 -8.223734 -1.195803
-15.015284 -8.395198 1.001852
-72.199867 -35.856033 3.284264
-13.141149 -7.347350 -0.701317
-11.824057 -5.872085 -0.691881
-16.023657 -8.958989 2.254096
-16.489300 -8.188947 1.502965
-11.820870 -7.389368 -0.567948
-20.911716 -9.140451 -0.796965
-26.564259 -14.852347 8.154871
-15.176216 -7.536840 3.089449
-27.120432 -15.163309 -0.723018
-20.469095 -12.691383 -0.420394
-11.792160 -5.802465 -0.382482
-7.128725 -3.951519 -2.281686
-10.470024 -5.151893 -2.333796
-27.232157 -15.095039 0.000000
-46.369156 -20.065737 -0.588201
-9.219534 -5.110474 -1.639964
-10.111272 -4.975365 -1.434407
-20.849215 -12.927067 0.142578
-11.750297 -5.781866 -0.076113
-10.233327 -5.672429 -1.260318
-14.408512 -6.235124 -1.465542
-14.899486 -8.258924 0.396404
-42.177139 -18.251688 0.535024
-12.982639 -7.196398 -1.037976
-11.822426 -5.817358 -1.075638
-21.843191 -13.543359 0.747976
-11.386268 -5.602741 0.221506
-10.693507 -6.630259 -0.806377
-17.297895 -7.485472 -1.097665
-21.014738 -11.648665 1.399290
-71.244225 -35.056522 3.234926
-13.325251 -7.386311 -0.709693
-11.863419 -5.837529 -0.692928
-19.098209 -10.586316 2.681126
-20.557787 -10.115690 1.870407
-19.806465 -12.280534 -0.949457
-20.919394 -9.052635 -0.795988
-26.909132 -14.915984 8.243904
-15.390870 -7.573250 3.127476
-27.368187 -15.170442 -0.728136
-20.457787 -12.595557 -0.419346
-11.774403 -5.747847 -0.381319
-7.154604 -3.936529 -2.285999
-10.588378 -5.168872 -2.356546
-27.531778 -15.148237 0.000000
-9.284026 -5.108157 -1.648573
-10.109025 -4.934869 -1.431882
-20.835228 -12.827944 0.142206
-11.678542 -5.701051 -0.075532
-10.240645 -5.634497 -1.259033
-14.493914 -6.218088 -1.472234
-18.159189 -9.991352 0.482291
-42.285736 -18.141161 0.535676
-13.015673 -7.161343 -1.038813
-12.030527 -5.872878 -1.092888
-23.710571 -14.598249 0.810346
-11.547576 -5.637118 0.224298
-10.697290 -6.586164 -0.805098
-17.310320 -7.426364 -1.096967
-15.418446 -8.483370 1.024875
-71.497681 -34.902641 3.241440
-14.010036 -7.708450 -0.744870
-11.910419 -5.814245 -0.694603
-16.261669 -8.947319 2.278957
-16.458677 -8.034545 1.495154
-20.124025 -12.390066 -0.962809
-21.072639 -9.040451 -0.800734
-27.148819 -14.937529 8.302916
-15.258993 -7.448901 3.095906
-18.285318 -10.060750 -0.485641
-20.359207 -12.427310 -0.416345
-11.839582 -5.723476 -0.382715
-7.196722 -3.923779 -2.294626
-10.689366 -5.167440 -2.374588
-17.988117 -9.807438 0.000000
-46.095757 -19.566484 -0.582985
-9.317451 -5.080039 -1.651033
-10.110037 -4.887382 -1.429356
-20.471218 -12.495682 0.139393
-11.750764 -5.680540 -0.075857
-10.248239 -5.587520 -1.257319
-14.719316 -6.247978 -1.492682
-18.221996 -9.934953 0.482943
-42.347721 -17.975536 0.535583
-11.767845 -6.416036 -0.937248
-12.031451 -5.816229 -1.090935
-19.800825 -12.086472 0.675133
-11.471916 -5.545739 0.222413
-10.575990 -6.455610 -0.794097
-20.889521 -8.867074 -1.321616
-20.976349 -11.436674 1.391383
-13.369477 -7.289274 -0.709320
-11.857133 -5.731960 -0.690207
-16.500174 -7.976493 1.496130
-16.043688 -9.793107 -0.765785
-20.941608 -8.889184 -0.794452
-27.453609 -14.968190 8.378490
-15.276854 -7.385118 3.093754
-18.309771 -9.982808 -0.485269
-21.058249 -12.763380 -0.429818
-12.163946 -5.833209 -0.392606
-7.175135 -3.882819 -2.283843
-10.769208 -5.164364 -2.388709
-18.054018 -9.769918 0.000000
-45.898933 -19.312994 -0.579726
-9.840878 -5.325384 -1.740810
-10.114607 -4.850451 -1.427841
-21.327913 -12.926823 0.144949
-11.815438 -5.666082 -0.076159
-10.262243 -5.553405 -1.256891
-14.749885 -6.206341 -1.493797
-14.416093 -7.801259 0.381422
-42.547760 -17.902914 0.537399
-11.752850 -6.360046 -0.934458
-12.240187 -5.869770 -1.108184
-24.218801 -14.678988 0.824193
-11.496494 -5.513134 0.222553
-10.521116 -6.376836 -0.788469
-20.939358 -8.810699 -1.323012
-20.980566 -11.353619 1.389290
-11.730131 -6.347752 -0.621284
-11.889488 -5.701593 -0.691044
-15.167980 -8.208141 2.117602
-47.555195 -22.805050 4.305483
-16.170076 -9.800665 -0.770345
-20.685711 -8.703972 -0.783703
-27.799526 -15.043694 8.469595
-15.353202 -7.362614 3.104516
-18.330490 -9.919532 -0.484990
-24.389576 -14.666327 -0.496765
-11.870058 -5.641397 -0.382482
-7.151310 -3.837714 -2.271981
-10.840307 -5.151995 -2.400476
-18.123257 -9.725753 0.000000
-44.190193 -18.412704 -0.557329
-9.821097 -5.270442 -1.734046
-11.145700 -5.297136 -1.570777
-21.054113 -12.660594 0.142787
-11.795403 -5.605917 -0.075904
-13.000890 -6.976861 -1.589320
-14.797194 -6.165539 -1.496400
-14.467903 -7.764126 0.382074
-42.543537 -17.726593 0.536561
-11.820685 -6.343510 -0.938085
-12.102166 -5.751710 -1.093864
-24.468630 -14.713865 0.830942
-11.382017 -5.409450 0.219970
-10.642518 -6.399728 -0.795888
-21.298046 -8.874246 -1.343709
-28.574486 -15.334352 1.888588
-47.486233 -22.568439 2.142017
-11.636033 -6.244418 -0.615141
-12.021160 -5.713210 -0.697534
-14.514373 -7.789064 2.022544
-47.555286 -22.601259 4.298323
-16.265841 -9.781233 -0.773276
-20.697519 -8.624024 -0.783005
-28.297850 -15.185896 8.605216
-15.417903 -7.327556 3.112409
-18.157112 -9.743921 -0.479500
-24.642395 -14.695646 -0.500814
-11.952151 -5.626804 -0.384461
-7.168729 -3.813286 -2.273059
-10.926544 -5.143971 -2.415381
-18.158781 -9.659262 0.000000
-44.183430 -18.220118 -0.556397
-9.920607 -5.277102 -1.748189
-11.132729 -5.241038 -1.566231
-21.433611 -12.782068 0.145042
-12.539661 -5.903391 -0.080553
-12.984239 -6.906750 -1.584180
-17.323393 -7.143725 -1.749208
-14.460958 -7.692266 0.381143
-42.608223 -17.570543 0.536561
-11.738171 -6.243925 -0.929714
-12.289089 -5.785427 -1.108835
-20.803343 -12.406204 0.704922
-11.333015 -5.335329 0.218644
-10.689902 -6.374990 -0.797678
-21.433796 -8.838750 -1.350221
-28.845552 -15.343913 1.902774
-47.622871 -22.419777 2.144460
-11.426018 -6.077880 -0.602857
-11.976965 -5.638486 -0.693766
-19.446514 -10.344251 2.704525
-47.637806 -22.426807 4.298323
-16.198603 -9.660138 -0.768391
-23.345520 -9.627096 -0.881841
-28.762655 -15.299817 8.729449
-15.455337 -7.276025 3.114561
-18.182110 -9.671672 -0.479221
-24.910395 -14.737836 -0.505212
-11.978969 -5.588430 -0.384693
-7.181996 -3.788239 -2.273059
-11.001307 -5.132331 -2.427932
-11.700161 -6.171405 0.000000
-9.949454 -5.247972 -1.750033
-11.104209 -5.180338 -1.559665
-21.581375 -12.768275 0.145740
-12.614566 -5.884950 -0.080902
-10.440385 -5.506920 -1.271456
-19.405674 -7.923261 -1.956659
-14.395756 -7.593233 0.378724
-43.761669 -17.867720 0.550297
-11.745777 -6.195466 -0.928598
-12.359792 -5.766092 -1.113392
-11.503797 -5.366753 0.221576
-10.708654 -6.335604 -0.797423
-22.473787 -9.175960 -1.413709
-20.153671 -10.630322 1.326965
-11.883558 -5.543920 0.534242
-11.337605 -5.980171 -0.597087
-12.242733 -5.711482 -0.708001
-15.486273 -8.168441 2.149776
-16.529099 -7.711158 1.488970
-12.083874 -7.149230 -0.572019
-23.519617 -9.602968 -0.887145
-29.229399 -15.417436 8.854717
-15.576927 -7.266951 3.133933
-12.004717 -6.332047 -0.315820
-25.189333 -14.784410 -0.509820
-12.317778 -5.694224 -0.394933
-7.283921 -3.809562 -2.301095
-11.065437 -5.115296 -2.438130
-11.799610 -6.171312 0.000000
-44.376301 -17.938210 -0.557235
-9.995731 -5.227866 -1.754953
-11.111418 -5.136552 -1.558150
-25.223789 -14.804633 0.169987
-12.591461 -5.820742 -0.080623
-10.456019 -5.468601 -1.271028
-19.462751 -7.867419 -1.959633
-14.418631 -7.541086 0.378631
-40.115547 -16.215889 0.503733
-11.756722 -6.148882 -0.927761
-12.340035 -5.704514 -1.109811
-21.510130 -12.624970 0.725867
-12.567974 -5.809885 0.241681
-10.720376 -6.292125 -0.796655
-22.309464 -9.018144 -1.401383
-20.158808 -10.543256 1.324872
-56.579285 -26.155298 2.539483
-11.701853 -6.120184 -0.615141
-12.255342 -5.665362 -0.707582
-14.874402 -7.779459 2.061054
-16.389734 -9.619649 -0.774253
-23.590055 -9.535797 -0.888541
-29.676764 -15.521239 8.973774
-11.938158 -6.243774 -0.313494
-25.459394 -14.829628 -0.514288
-12.336593 -5.653346 -0.394933
-7.043495 -3.654123 -2.221301
-11.150088 -5.109620 -2.453035
-11.851964 -6.148727 0.000000
-46.117607 -18.464411 -0.578329
-9.806015 -5.087301 -1.718673
-11.139213 -5.104636 -1.559665
-25.480124 -14.841702 0.171382
-10.159907 -5.270898 -1.232901
-19.544193 -7.825038 -1.965209
-12.203724 -6.331218 0.319915
-40.250793 -16.115477 0.504757
-11.791217 -6.117212 -0.928877
-12.391503 -5.678509 -1.112741
-21.071640 -12.273842 0.709693
-11.478249 -5.260002 0.220389
-10.786023 -6.282660 -0.799981
-18.884188 -7.560787 -1.184641
-20.222015 -10.491059 1.326733
-11.654696 -6.046386 -0.611605
-12.292219 -5.633011 -0.708629
-16.433125 -8.525406 2.273107
-16.428450 -9.569269 -0.774578
-23.680927 -9.481290 -0.890775
-29.741789 -15.429860 8.977916
-11.997844 -6.224409 -0.314518
-25.728300 -14.860226 -0.518616
-12.044113 -5.465986 -0.384926
-7.039713 -3.619474 -2.215909
-11.215175 -5.089788 -2.463233
-11.920669 -6.129020 0.000000
-9.972230 -5.127229 -1.744499
-11.128942 -5.050653 -1.555625
-25.766420 -14.882244 0.172939
-44.244049 -20.079298 -0.282389
-10.126107 -5.206345 -1.226475
-19.624582 -7.773882 -1.970414
-11.935225 -6.136505 0.312284
-40.071602 -15.873556 0.501777
-11.756782 -6.044757 -0.924413
-12.354148 -5.606689 -1.107533
-14.150368 -8.173010 0.475572
-12.491689 -5.669109 0.239447
-10.802067 -6.239089 -0.799469
-22.434992 -8.887169 -1.405336
-11.890009 -5.396049 0.531963
-11.669673 -5.999971 -0.611233
-13.029363 -5.913122 -0.749870
-14.900105 -7.660900 2.057155
-14.951009 -8.635447 -0.703422
-23.503675 -9.310507 -0.882818
-29.798147 -15.320739 8.977916
-15.516006 -7.041636 3.106669
-12.066812 -6.204160 -0.315727
-14.972355 -8.581694 -0.301229
-12.448688 -5.599888 -0.397260
-7.048245 -3.594361 -2.214831
-11.274916 -5.071881 -2.472647
-12.343590 -6.294804 0.000000
-21.220005 -8.324578 -0.265370
-9.939881 -5.068996 -1.735890
-13.577402 -6.107626 -1.895033
-26.041199 -14.926014 0.174450
-44.434418 -19.988272 -0.283180
-11.454186 -5.841239 -1.384979
-19.776312 -7.758219 -1.983055
-11.941257 -6.089628 0.311912
-40.191040 -15.766890 0.502615
-11.783869 -6.009366 -0.924971
-12.347221 -5.554245 -1.105255
-23.640547 -13.550035 0.793008
-12.703729 -5.714615 0.243147
-10.840012 -6.213161 -0.800748
-22.587011 -8.860853 -1.413011
-42.723946 -21.787733 2.792999
-11.845874 -5.328720 0.529195
-11.757134 -5.995732 -0.614769
-12.538892 -5.640465 -0.720562
-19.866379 -10.131166 2.738161
-12.375476 -7.093242 -0.581137
-23.698164 -9.296757 -0.888960
-30.127583 -15.364025 9.061772
-12.090879 -6.165930 -0.315820
-15.002221 -8.529373 -0.301229
-12.603286 -5.616615 -0.401566
-7.050437 -3.564521 -2.211596
-11.364205 -5.064423 -2.488336
-12.340502 -6.239042 0.000000
-21.316050 -8.276508 -0.266208
-10.042171 -5.077065 -1.750648
-13.653005 -6.084419 -1.902610
-14.993821 -8.524597 0.100244
-43.678223 -19.465061 -0.277926
-13.352026 -6.750443 -1.611596
-19.851538 -7.707873 -1.987888
-11.937462 -6.035275 0.311261
-40.174992 -15.598981 0.501731
-11.790532 -5.960991 -0.923855
-12.599591 -5.614968 -1.126084
-14.959923 -8.505325 0.500823
-12.719946 -5.668604 0.243077
-11.208652 -6.372575 -0.826331
-22.684811 -8.807965 -1.417197
-15.683737 -7.929296 1.023479
-11.886307 -5.297095 0.530172
-11.717376 -5.924005 -0.611605
-17.287098 -7.703941 -0.991871
-15.097175 -7.632745 2.077141
-56.541569 -25.197573 5.053385
-12.407110 -7.053947 -0.581463
-23.689480 -9.198054 -0.887424
-30.574118 -15.457491 9.179794
-12.108762 -6.121880 -0.315727
-11.563335 -6.518265 -0.231698
-12.788396 -5.643023 -0.406802
-7.063454 -3.538657 -2.211596
-11.458048 -5.055992 -2.504810
-12.288181 -6.156147 0.000000
-10.025373 -5.022523 -1.744499
-13.758709 -6.071184 -1.914226
-15.035416 -8.475481 0.100314
-43.262550 -19.090086 -0.274834
-11.040559 -5.531112 -1.330145
-18.875818 -7.249530 -1.887508
-11.870118 -5.946705 0.308935
-40.515663 -15.560625 0.505270
-11.798029 -5.910590 -0.922739
-12.700328 -5.604162 -1.133244
-14.113268 -7.955666 0.471499
-42.360237 -18.691929 0.808186
-12.956711 -7.303713 -0.953223
-22.582739 -8.673226 -1.408825
-15.648428 -7.839567 1.019293
-11.883701 -5.243816 0.529195
-11.728291 -5.875652 -0.611047
-20.878395 -9.212826 -1.195981
-15.685891 -7.858335 2.154163
-56.815914 -25.070658 5.069658
-12.436361 -7.010391 -0.581626
-26.585320 -10.210476 -0.994496
-47.978783 -24.036465 14.378952
-11.887994 -5.955660 -0.309400
-11.583756 -6.481905 -0.231698
-7.088333 -3.523307 -2.215909
-11.538558 -5.048269 -2.518931
-41.622292 -15.835771 -0.518447
-10.062339 -5.001557 -1.748189
-13.763173 -6.021567 -1.912206
-26.975412 -15.094590 0.179658
-42.963188 -18.796953 -0.272556
-11.018707 -5.476927 -1.325433
-21.708895 -8.259446 -2.168199
-12.142989 -6.035759 0.315541
-40.650330 -15.465974 0.506341
-11.702198 -5.816661 -0.913810
-12.706914 -5.559440 -1.132268
-23.269400 -13.020823 0.776019
-42.382111 -18.542725 0.807488
-11.572251 -6.475467 -0.849868
-20.766151 -7.900767 -1.293942
-15.787408 -7.847244 1.026735
-11.892794 -5.203252 0.528869
-11.771738 -5.851227 -0.612350
-18.813950 -8.231347 -1.076237
-13.877848 -7.765606 -0.647897
-21.139879 -8.042956 -0.789845
-11.795637 -5.863105 -0.306515
-11.581833 -6.427845 -0.231209
-22.888603 -9.919015 -0.725983
-7.117865 -3.507054 -2.221301
-11.656879 -5.051630 -2.540896
-12.127807 -5.975510 0.000000
-10.827827 -5.334996 -1.877935
-13.733137 -5.951398 -1.905135
-27.279749 -15.140091 0.181332
-46.144478 -19.997190 -0.292293
-11.779791 -5.804039 -1.414538
-21.953775 -8.265004 -2.189762
-11.737113 -5.783011 0.304468
-41.901909 -15.774938 0.521241
-11.718852 -5.774014 -0.913531
-12.773798 -5.535658 -1.136499
-14.284586 -7.927855 0.475456
-42.600704 -18.461458 0.810420
-11.636668 -6.458278 -0.852938
-20.546953 -7.735373 -1.278593
-15.796793 -7.783262 1.025572
-42.799240 -18.547497 1.900379
-11.856606 -5.841887 -0.615700
-21.136957 -9.159921 -1.207286
-16.464182 -8.112093 2.253608
-11.713779 -6.501074 -0.545803
-21.167826 -7.969115 -0.789845
-12.045609 -5.935010 -0.312471
-27.577494 -15.179664 -0.549472
-23.029638 -9.884791 -0.729358
-7.192365 -3.512613 -2.240710
-11.753737 -5.044944 -2.558154
-11.817920 -5.771646 0.000000
-21.308197 -7.937149 -0.264718
-10.917416 -5.331857 -1.890233
-13.746536 -5.900294 -1.904125
-27.605757 -15.195221 0.183145
-45.883190 -19.694002 -0.290201
-12.339591 -6.026420 -1.479225
-22.090725 -8.228635 -2.200544
-11.365561 -5.550723 0.294325
-41.806789 -15.572726 0.519379
-11.756863 -5.741827 -0.914926
-14.767685 -6.338592 -1.311921
-14.315677 -7.879873 0.475572
-42.477455 -18.232191 0.806860
-11.949395 -6.577385 -0.874172
-20.600023 -7.673359 -1.280221
-15.823866 -7.728073 1.025572
-43.062050 -18.483112 1.909172
-11.941554 -5.832026 -0.619050
-21.106403 -9.059299 -1.203727
-16.499535 -8.058057 2.254583
-11.704888 -6.442800 -0.544338
-27.661306 -10.303637 -1.030792
-11.897367 -5.810447 -0.308097
-18.290895 -9.980803 -0.363708
-23.227629 -9.869113 -0.734478
-7.298810 -3.531526 -2.269825
-11.819079 -5.021770 -2.568352
-11.730975 -5.676026 0.000000
-21.367172 -7.870056 -0.265091
-10.990252 -5.317628 -1.899456
-13.863022 -5.890215 -1.917257
-17.973856 -9.807804 0.119005
-43.967102 -18.681042 -0.277647
-12.050140 -5.830455 -1.441955
-22.266491 -8.201298 -2.215043
-11.749398 -5.684941 0.303724
-11.813748 -5.716076 -0.917716
-14.724771 -6.256361 -1.306063
-18.170116 -9.914898 0.602407
-42.503506 -18.059179 0.806092
-11.815741 -6.447502 -0.862659
-20.583044 -7.581243 -1.277431
-72.721886 -35.186447 4.704843
-43.015469 -18.276705 1.904124
-11.894510 -5.755153 -0.615514
-21.010788 -8.927206 -1.196400
-16.661190 -8.061508 2.272620
-67.235664 -28.567545 5.963691
-13.833436 -7.548499 -0.642035
-21.265574 -7.832635 -0.791381
-12.476537 -6.036766 -0.322520
-18.274652 -9.893441 -0.362731
-23.190210 -9.762562 -0.732267
-7.303535 -3.503972 -2.267668
-11.875431 -4.999292 -2.576981
-11.785795 -5.654399 0.000000
-11.132548 -5.340994 -1.920978
-13.875163 -5.841135 -1.916247
-11.752094 -6.362291 0.077670
-46.355034 -19.514439 -0.292316
-11.994108 -5.754340 -1.432959
-17.414274 -6.348609 -1.730247
-11.804238 -5.663247 0.304654
-40.366276 -14.716071 0.500194
-11.972944 -5.744186 -0.928598
-14.822600 -6.239985 -1.312897
-40.683254 -17.126745 0.770489
-11.759826 -6.366476 -0.857031
-20.611822 -7.514318 -1.277663
-47.819504 -22.942072 3.088810
-56.546707 -23.804905 2.499590
-11.845080 -5.682842 -0.611977
-21.021866 -8.849738 -1.195353
-16.530327 -7.930654 2.251171
-56.637463 -23.843111 5.016608
-11.665229 -6.315264 -0.540430
-21.351519 -7.783985 -0.793615
-11.703286 -5.614814 -0.302049
-18.164608 -9.752024 -0.359869
-23.179863 -9.663086 -0.730871
-7.204403 -3.425525 -2.233162
-11.976078 -4.992517 -2.595024
-11.809074 -5.614939 0.000000
-12.239824 -5.819750 -2.108526
-15.843910 -6.604917 -2.184945
-11.760137 -6.313658 0.077577
-44.045242 -18.361324 -0.277345
-12.578013 -5.980551 -1.500216
-22.733915 -8.198159 -2.255939
-11.405007 -5.422814 0.293860
-40.432449 -14.580492 0.500380
-11.866796 -5.642384 -0.918832
-17.306074 -7.214455 -1.530629
-22.714579 -12.194764 0.750303
-40.768635 -16.995390 0.770977
-11.869905 -6.372589 -0.863427
-20.701786 -7.465346 -1.281617
-47.560310 -22.613813 3.066950
-67.445541 -28.116304 2.977005
-11.835979 -5.627730 -0.610488
-18.851509 -7.858707 -1.070375
-16.102552 -7.656386 2.189261
-69.816750 -29.104797 6.174913
-11.673119 -6.266941 -0.539779
-21.254467 -7.664650 -0.789008
-11.896166 -5.656348 -0.306515
-18.179197 -9.682332 -0.359520
-23.185913 -9.575481 -0.730056
-7.146040 -3.368766 -2.211596
-12.079577 -4.988709 -2.613852
-11.842103 -5.582570 0.000000
-20.993698 -7.492035 -0.259503
-11.132896 -5.248238 -1.914829
-16.192139 -6.687144 -2.229897
-11.784539 -6.276505 0.077601
-44.176140 -18.244173 -0.277786
-12.547415 -5.915066 -1.494218
-21.264336 -7.588618 -2.107600
-11.404840 -5.376437 0.293395
-21.626560 -7.717885 0.267326
-11.917925 -5.618314 -0.921344
-19.610832 -8.099020 -1.732087
-23.460691 -12.495283 0.773575
-40.898701 -16.890635 0.772374
-11.799367 -6.284402 -0.856775
-20.700104 -7.387260 -1.279989
-47.570023 -22.425323 3.062764
-41.890583 -17.300270 1.846482
-11.876261 -5.598673 -0.611605
-21.055777 -8.695764 -1.193888
-15.991389 -7.538615 2.170737
-56.901630 -23.499638 5.025721
-11.658561 -6.209409 -0.538150
-20.944681 -7.474543 -0.776584
-47.680023 -22.477180 14.124273
-11.885921 -5.603227 -0.305771
-11.702219 -6.180326 -0.231000
-23.226595 -9.497520 -0.730289
-7.143795 -3.337281 -2.207283
-12.144114 -4.965815 -2.624050
-11.897757 -5.558132 0.000000
-20.842451 -7.356146 -0.257315
-10.954194 -5.117339 -1.881009
-16.211704 -6.629082 -2.229392
-11.749784 -6.205447 0.077229
-44.313595 -18.120146 -0.278251
-12.056330 -5.632210 -1.433387
-23.221087 -8.195663 -2.298693
-11.409045 -5.329826 0.293023
-20.936743 -7.389425 0.258479
-11.944694 -5.580059 -0.921902
-19.661121 -8.039574 -1.734040
-23.631441 -12.480539 0.777765
-40.864861 -16.709934 0.770628
-11.704748 -6.181661 -0.848333
-20.473469 -7.225917 -1.264408
-47.684185 -22.276047 3.065089
-41.824940 -17.102516 1.840946
-12.525632 -5.851449 -0.643991
-21.163645 -8.653966 -1.198284
-16.085949 -7.514679 2.179999
-11.715504 -6.187342 -0.539779
-20.801008 -7.341519 -0.770302
-12.869143 -6.011922 -0.330523
-11.738966 -6.144812 -0.231279
-23.798674 -9.629788 -0.747161
-7.173458 -3.319162 -2.212675
-12.060425 -4.880076 -2.602084
-20.699327 -7.220425 -0.255219
-12.762829 -5.905367 -2.187849
-15.540701 -6.288320 -2.133933
-11.761818 -6.156775 0.077159
-44.312965 -17.930599 -0.277833
-12.629123 -5.843501 -1.498930
-21.483551 -7.493981 -2.123958
-11.450280 -5.298050 0.293581
-20.990120 -7.321861 0.258805
-11.961445 -5.534566 -0.921623
-19.668282 -7.958485 -1.732087
-23.127962 -12.106432 0.759728
-40.859097 -16.533041 0.769372
-11.847569 -6.201662 -0.857031
-20.537518 -7.163982 -1.266733
-56.677151 -26.224545 3.636945
-41.983665 -16.988081 1.845180
-12.405569 -5.740063 -0.636732
-21.428499 -8.670732 -1.211473
-16.243099 -7.515690 2.197548
-68.827904 -27.850214 6.061328
-11.677909 -6.112852 -0.537010
-20.786257 -7.250748 -0.768766
-12.009184 -5.556655 -0.307911
-12.122418 -6.291724 -0.238400
-24.819426 -9.942146 -0.778114
-7.360073 -3.374369 -2.266590
-12.070104 -4.835033 -2.600515
-20.845400 -7.189864 -0.256709
-12.912706 -5.920083 -2.209986
-16.424482 -6.579307 -2.252120
-11.658978 -6.051191 0.076345
-44.323303 -17.754995 -0.277507
-13.676147 -6.270097 -1.620593
-22.868753 -7.887746 -2.258169
-20.985302 -7.238118 0.258432
-11.998826 -5.501096 -0.923018
-21.720310 -8.700706 -1.910113
-41.131889 -16.476582 0.773421
-11.823085 -6.136365 -0.853705
-20.679424 -7.132617 -1.273942
-71.295288 -32.686718 4.567634
-42.154011 -16.886023 1.850065
-12.145854 -5.568504 -0.622400
-22.537685 -9.028129 -1.272392
-16.197054 -7.425856 2.187799
-69.294785 -27.758053 6.093874
-11.724006 -6.084941 -0.538150
-21.019291 -7.249841 -0.776444
-47.177776 -18.898438 9.266195
-11.955805 -5.481372 -0.306050
-3.858332 -1.530739 -1.935592
-11.759184 -6.053784 -0.230860
-26.078703 -10.346362 -0.816513
-7.185363 -3.265478 -2.209440
-12.333990 -4.893339 -2.653859
-12.588942 -5.721201 0.000000
-21.145466 -7.214986 -0.260108
-12.968249 -5.893582 -2.216135
-17.851458 -7.082317 -2.444553
-11.718100 -6.032634 0.076601
-46.107098 -18.292349 -0.288294
-13.653417 -6.204965 -1.615452
-22.826935 -7.788716 -2.251477
-42.383801 -19.261847 1.083318
-31.979391 -10.911601 0.393375
-11.962511 -5.436512 -0.918832
-21.863920 -8.674206 -1.920202
-11.318747 -5.827042 0.370497
-40.814548 -16.192604 0.766440
-11.829173 -6.089816 -0.852682
-20.755873 -7.082055 -1.277198
-56.581676 -25.714249 3.619503
-56.508789 -22.419075 2.476794
-12.437076 -5.652184 -0.636360
-22.474676 -8.916515 -1.267158
-16.030025 -7.285045 2.161963
-69.571739 -27.601618 6.110147
-11.712138 -6.029565 -0.536685
-20.925928 -7.140079 -0.772116
-11.791983 -6.016094 -0.231070
-7.193772 -3.237538 -2.208361
-12.388354 -4.862427 -2.661704
-21.217249 -7.152763 -0.260667
-13.011391 -5.855741 -2.219824
-18.047207 -7.083526 -2.467786
-11.725882 -5.982370 0.076508
-41.541931 -16.305201 -0.259374
-13.657936 -6.146718 -1.613310
-18.975660 -6.397078 -1.869291
-42.326488 -19.048922 1.080061
-31.966110 -10.776421 0.392724
-11.949610 -5.377890 -0.916321
-22.021746 -8.643532 -1.931267
-40.259350 -15.801788 0.754921
-11.851416 -6.046416 -0.852682
-20.898996 -7.045474 -1.284407
-56.777515 -25.552567 3.626015
-42.151821 -16.544584 1.844854
-12.446779 -5.601639 -0.635801
-22.410532 -8.796130 -1.261715
-16.262983 -7.319112 2.189749
-56.768902 -22.281784 4.978530
-11.727040 -5.982961 -0.536359
-22.130060 -7.460490 -0.815531
-12.427731 -5.593067 -0.317123
-12.229386 -6.188226 -0.239238
-25.971420 -10.094512 -0.810928
-7.207987 -3.215233 -2.209440
-12.495809 -4.856843 -2.681316
-21.202911 -7.069712 -0.260202
-13.052397 -5.822222 -2.223514
-15.533464 -6.037511 -2.121306
-12.256026 -6.201706 0.079832
-41.841831 -16.262987 -0.260908
-13.692773 -6.107872 -1.615024
-18.989214 -6.331596 -1.868548
-42.294472 -18.866098 1.077642
-31.933374 -10.647582 0.391885
-11.974668 -5.341484 -0.916879
-17.371943 -6.752087 -1.521516
-12.265317 -6.206408 0.400053
-40.404724 -15.704415 0.756667
-11.850030 -5.996267 -0.851147
-21.039680 -7.015286 -1.291617
-40.701477 -15.819757 1.779071
-21.398258 -9.545021 -1.091434
-22.484255 -8.739129 -1.264228
-16.171141 -7.213385 2.174149
-56.459740 -21.944643 4.945008
-11.778913 -5.960280 -0.537825
-21.646507 -7.217620 -0.796825
-12.435254 -5.546936 -0.316844
-11.739712 -5.889067 -0.229255
-26.189352 -10.074138 -0.816629
-7.215642 -3.188498 -2.208361
-12.501702 -4.808972 -2.678962
-43.128880 -19.058088 0.000000
-21.223660 -6.994410 -0.260155
-13.119636 -5.797396 -2.231508
-16.687695 -6.419179 -2.275858
-11.927218 -5.983127 0.077554
-42.812988 -16.468678 -0.266604
-13.604877 -6.011818 -1.602172
-22.808897 -7.516837 -2.241811
-42.334457 -18.707045 1.076990
-31.943750 -10.527293 0.391559
-12.113681 -5.352878 -0.926087
-12.304773 -6.172522 0.400635
-40.142010 -15.441243 0.750733
-11.935113 -5.987087 -0.855752
-21.174023 -6.978052 -1.298361
-68.535912 -30.285126 4.363682
-40.614697 -15.623069 1.772884
-21.022108 -9.289395 -1.070588
-22.462425 -8.640518 -1.261297
-16.178062 -7.148874 2.171712
-56.725761 -21.820438 4.961606
-11.813933 -5.926299 -0.538476
-21.447561 -7.068199 -0.788589
-12.871518 -5.687756 -0.327452
-11.742292 -5.839147 -0.228906
-26.355145 -10.032442 -0.820702
-7.230258 -3.164835 -2.209440
-12.547739 -4.776467 -2.685238
-43.759457 -19.154432 0.000000
-21.278370 -6.930192 -0.260527
-13.121690 -5.743639 -2.228433
-16.824963 -6.404650 -2.291516
-11.758209 -5.847062 0.076322
-41.307632 -15.724310 -0.256887
-13.534700 -5.924423 -1.591462
-22.785769 -7.421139 -2.236978
-42.465446 -18.588018 1.078665
-31.223488 -10.169235 0.382293
-12.066496 -5.281759 -0.921064
-22.702005 -8.641826 -1.983015
-12.415748 -6.174039 0.403544
-40.285374 -15.335173 0.752408
-11.787948 -5.861850 -0.843728
-21.281788 -6.931304 -1.303477
-68.794868 -30.112961 4.373450
-40.612957 -15.459871 1.770441
-21.072712 -9.223969 -1.071519
-22.746309 -8.658690 -1.275532
-16.461147 -7.205389 2.206323
-56.790405 -21.618036 4.960629
-11.873913 -5.904599 -0.540267
-21.403685 -6.971005 -0.786076
-47.081684 -17.922281 9.185121
-23.002117 -10.068510 -0.584277
-11.644224 -5.739771 -0.226602
-26.618244 -10.026357 -0.827800
-7.248329 -3.142642 -2.211596
-12.586359 -4.740933 -2.689945
-42.897560 -18.599003 0.000000
-21.374773 -6.879154 -0.261412
-13.177921 -5.713523 -2.234582
-16.891775 -6.362665 -2.297577
-11.774960 -5.804214 0.076299
-41.373501 -15.584253 -0.256956
-13.624625 -5.907199 -1.599602
-22.595440 -7.272008 -2.215787
-42.691502 -18.509663 1.082760
-21.462341 -6.907338 0.262483
-12.088519 -5.241193 -0.921344
-21.112846 -7.952626 -1.841766
-40.435970 -15.231112 0.754223
-11.740309 -5.787134 -0.838867
-20.963741 -6.746870 -1.282547
-68.804306 -29.831333 4.367404
-18.809906 -8.155370 -0.955005
-22.910965 -8.629928 -1.283068
-56.671516 -21.346594 4.943706
-11.944640 -5.887855 -0.542547
-21.047356 -6.773780 -0.772116
-23.022446 -9.981791 -0.583905
-11.617475 -5.676265 -0.225695
-7.262793 -3.118841 -2.212675
-12.786598 -4.765459 -2.729168
-44.682327 -19.187809 0.000000
-20.990807 -6.674810 -0.256430
-13.274051 -5.700240 -2.247495
-18.720905 -6.977125 -2.543042
-11.766397 -5.749029 0.076113
-46.603756 -17.368832 -0.289061
-13.663432 -5.867450 -1.601744
-22.852203 -7.266711 -2.238465
-42.895481 -18.420490 1.086296
-21.463451 -6.825105 0.262204
-12.110407 -5.200539 -0.921623
-23.109203 -8.612607 -2.013283
-26.630686 -13.011678 0.862593
-40.357716 -15.040984 0.751780
-11.781958 -5.756631 -0.840402
-20.949108 -6.661551 -1.280221
-69.810638 -29.978594 4.424613
-40.143158 -14.961020 1.745366
-21.015434 -9.024600 -1.065377
-21.578493 -8.042125 -1.206867
-57.905407 -24.866161 7.737729
-56.364639 -21.006632 4.910509
-11.753252 -5.742606 -0.532940
-21.242304 -6.754783 -0.778398
-47.054470 -17.536810 9.155704
-23.016727 -9.884010 -0.582881
-11.524657 -5.583653 -0.223530
-21.321690 -7.865993 -0.661402
-7.276641 -3.096250 -2.213753
-13.004725 -4.797700 -2.772314
-41.867439 -17.814821 0.000000
-21.112032 -6.636354 -0.257640
-13.380166 -5.693333 -2.262253
-18.769997 -6.924623 -2.546578
-11.763798 -5.699516 0.075973
-13.949957 -5.935782 -1.633016
-22.933167 -7.208809 -2.244042
-42.978405 -18.287542 1.086854
-21.398205 -6.726310 0.261133
-20.043745 -8.528722 -1.523202
-23.261066 -8.581468 -2.024023
-40.917675 -15.095340 0.761274
-11.822536 -5.727974 -0.841937
-20.997749 -6.600431 -1.281849
-70.038277 -29.801662 4.432752
-42.359848 -15.627386 1.839481
-20.968033 -8.922011 -1.061468
-24.745546 -9.129122 -1.382297
-57.877945 -24.627378 7.723104
-56.647186 -20.898268 4.929060
-11.743455 -5.689660 -0.531637
-21.192127 -6.661531 -0.775746
-23.141371 -9.846778 -0.585208
-11.587343 -5.564163 -0.224368
-21.972513 -8.019062 -0.680719
-7.283855 -3.069333 -2.212675
-13.117194 -4.787235 -2.792711
-41.907261 -17.659237 0.000000
-31.505884 -9.782836 -0.384063
-13.418173 -5.654263 -2.265328
-18.823875 -6.869939 -2.550618
-11.246366 -5.400427 0.072509
-21.064613 -7.687716 -0.130326
-13.992582 -5.896313 -1.635586
-22.912550 -7.114535 -2.239580
-41.954880 -17.679304 1.059403
-12.895659 -5.434083 -0.978544
-23.406981 -8.542583 -2.034112
-11.786045 -5.659577 0.380504
-40.353970 -14.727536 0.749825
-12.461391 -5.983874 -0.885940
-21.077869 -6.544852 -1.285338
-56.592625 -23.847481 3.576480
-68.642807 -25.051796 2.977005
-18.863430 -7.948833 -0.953516
-57.879421 -24.389723 7.711893
-56.689835 -20.689453 4.926456
-11.734425 -5.634790 -0.530335
-21.558851 -6.694201 -0.788310
-47.557575 -20.040215 13.828184
-11.722256 -5.578677 -0.226602
-21.391132 -7.722373 -0.661868
-7.298080 -3.045372 -2.213753
-12.576745 -4.540308 -2.674256
-41.983410 -17.519005 0.000000
-25.325941 -7.767089 -0.308396
-13.426885 -5.602824 -2.263483
-17.410837 -6.285454 -2.356165
-12.265611 -5.837262 0.078949
-21.091322 -7.614140 -0.130326
-15.125171 -6.311491 -1.765388
-22.826822 -7.000647 -2.228799
-40.658234 -16.966030 1.025160
-31.478659 -9.654036 0.383318
-12.958738 -5.407474 -0.981892
-23.455406 -8.467594 -2.035739
-11.960970 -5.692283 0.385508
-40.472851 -14.611030 0.751082
-12.179430 -5.796248 -0.864450
-24.696886 -7.574167 -1.504405
-56.771339 -23.689772 3.582527
-68.541885 -24.744183 2.968864
-21.110939 -8.809257 -1.065563
-21.100342 -7.617396 -1.175675
-57.077518 -23.817535 7.593923
-56.382973 -20.354715 4.893585
-11.761238 -5.597229 -0.530660
-21.662346 -6.643518 -0.791241
-41.931454 -17.497324 -1.057263
-11.908051 -5.616204 -0.229813
-21.015051 -7.503798 -0.649417
-7.312225 -3.021351 -2.214831
-12.625760 -4.508252 -2.681316
-41.759647 -17.254742 0.000000
-21.639732 -6.554035 -0.263228
-13.486541 -5.572527 -2.270247
-19.215172 -6.861119 -2.597085
-11.837309 -5.582840 0.076066
-20.752369 -7.410003 -0.128071
-17.301004 -7.148632 -2.016423
-23.228477 -7.035219 -2.265605
-40.768944 -16.845390 1.026463
-31.435604 -9.520915 0.382386
-17.366074 -7.175518 -1.313933
-18.960566 -6.770207 -1.643562
-12.353245 -5.826171 0.397493
-41.604580 -14.855655 0.771117
-12.008236 -5.663454 -0.850891
-25.323195 -7.669647 -1.540917
-56.391273 -20.135508 2.439506
-21.064007 -8.703474 -1.061654
-20.645279 -7.371764 -1.148879
-58.066624 -23.992649 7.714330
-56.645157 -20.226162 4.910183
-11.809623 -5.569782 -0.531963
-21.731316 -6.581773 -0.792917
-47.453495 -19.607391 13.757786
-24.728949 -10.217797 -0.622615
-12.355120 -5.774421 -0.238051
-20.958172 -7.401105 -0.646857
-7.319162 -2.994349 -2.213753
-13.303448 -4.697939 -2.821736
-41.756683 -17.083118 0.000000
-25.429361 -7.604996 -0.309001
-13.674185 -5.594259 -2.298533
-19.321318 -6.823071 -2.608196
-11.987177 -5.602455 0.076903
-20.819597 -7.352170 -0.128327
-16.427719 -6.720760 -1.911897
-23.207102 -6.940399 -2.261143
-41.452995 -16.958876 1.042189
-31.533787 -9.430607 0.383178
-17.365162 -7.104279 -1.311980
-21.435097 -7.569525 -1.855761
-11.815683 -5.522305 0.379573
-41.478939 -14.647746 0.767836
-11.930290 -5.575868 -0.843984
-24.951925 -7.462213 -1.516731
-56.664719 -20.010406 2.448299
-21.097958 -8.631406 -1.061840
-20.640753 -7.289013 -1.147204
-56.672840 -23.185480 7.518364
-56.369568 -19.906178 4.880241
-11.792785 -5.511602 -0.530335
-25.323675 -7.573389 -0.923022
-11.961487 -5.539656 -0.230093
-22.191801 -7.749727 -0.684093
-7.333139 -2.970228 -2.214831
-13.297548 -4.643713 -2.817029
-41.919868 -16.979301 0.000000
-25.451918 -7.515051 -0.308954
-13.693629 -5.546493 -2.298533
-19.292572 -6.737270 -2.601125
-12.362360 -5.725310 0.079182
-20.818701 -7.270218 -0.128164
-16.694363 -6.761915 -1.940170
