1.510003 -4.214955 -0.156350
1.706303 -3.608081 1.069440
2.298985 -5.547500 1.094867
1.984846 -4.197077 -0.108034
1.989335 -3.757199 -0.074208
1.722002 -4.198675 -0.132071
1.849667 -3.948616 -1.220637
2.092619 -5.102332 -1.102964
2.143056 -4.574934 0.000000
2.032079 -5.738413 -0.070871
2.043810 -4.363067 -0.749575
2.124509 -5.180088 -0.712658
2.208592 -4.171303 0.027432
2.118848 -5.166284 -0.032454
3.733090 -10.541919 -1.043948
2.508885 -5.355896 0.137625
2.013387 -5.685628 0.070219
1.975340 -4.216898 -0.325623
2.870003 -5.420491 0.178500
2.162571 -5.272892 0.099479
2.062148 -3.894719 -0.282437
1.990123 -5.619933 -0.347206
2.505319 -5.348283 0.343950
2.007935 -4.895850 0.215586
1.878016 -4.009134 -0.206226
1.703697 -4.154042 -0.235302
2.869792 -6.126349 0.830662
2.559645 -6.241058 0.550675
1.989859 -3.758189 -0.173250
1.933566 -5.460223 -0.202277
1.696345 -3.621309 1.071511
2.447369 -5.967301 1.175942
1.888025 -4.030501 -0.103568
1.904336 -3.625688 -0.071485
1.703555 -4.193249 -0.131722
1.862521 -4.010624 -1.237890
2.063877 -5.080173 -1.096688
2.018328 -5.760218 -0.071057
2.027666 -4.366236 -0.748960
1.929594 -4.749639 -0.652554
2.209627 -4.206934 0.027618
2.058044 -5.065814 -0.031780
2.428791 -5.229991 0.134182
1.981295 -5.654526 0.069753
1.994234 -4.908748 -0.432534
2.017231 -3.840630 0.126253
1.949383 -4.798347 0.090403
2.175441 -4.141848 -0.299833
1.967514 -5.615196 -0.346509
2.432066 -5.237044 0.336276
2.262461 -5.568982 0.244895
2.152495 -4.635036 -0.238053
1.742534 -4.289196 -0.242630
2.765850 -5.955791 0.806288
2.481913 -6.109156 0.538307
1.966235 -3.743537 -0.172273
1.953784 -5.576011 -0.206326
1.663171 -3.581359 1.058052
2.694170 -6.631619 1.305088
2.022869 -4.355908 -0.111756
2.429242 -4.664542 -0.091800
1.687415 -4.195460 -0.131606
1.817917 -3.950617 -1.217402
2.056377 -5.112819 -1.102179
2.087252 -6.024222 -0.074224
2.004152 -4.355334 -0.745886
1.868584 -4.645903 -0.637402
1.862363 -3.576042 0.023434
1.989601 -4.946792 -0.030989
4.116315 -8.945396 -1.060689
3.461756 -9.991314 -0.987066
2.427237 -5.274764 0.135112
1.934047 -5.582042 0.068776
3.055831 -6.640798 -0.511175
4.235341 -10.530427 -0.926579
2.040749 -3.918572 0.128580
1.923667 -4.782859 0.089985
2.135157 -4.099850 -0.296251
1.981892 -5.720132 -0.352555
2.467188 -5.361585 0.343718
2.214673 -5.506392 0.241801
2.142985 -4.657041 -0.238798
1.684326 -4.187778 -0.236559
2.662062 -5.785076 0.781914
2.189821 -5.444604 0.479074
1.923618 -3.693661 -0.169668
1.927765 -5.563911 -0.205628
1.658736 -3.604692 1.063229
2.737083 -6.805273 1.337374
2.002637 -4.352044 -0.111477
2.304684 -4.463331 -0.087681
1.678676 -4.216184 -0.132071
1.847260 -4.051568 -1.246516
2.022557 -5.079880 -1.093550
2.527279 -5.543044 0.000000
1.727891 -5.043884 -0.062070
2.236529 -4.905344 -0.838737
3.204192 -8.047689 -1.102574
1.879232 -3.639387 0.023806
1.969362 -4.946275 -0.030943
4.076816 -8.941617 -1.058547
3.362323 -9.814949 -0.968477
2.063746 -4.526382 0.115757
1.917143 -5.596327 0.068869
1.931813 -4.237015 -0.325623
4.189709 -10.522923 -0.924626
1.986701 -3.847514 0.126020
1.911399 -4.800692 0.090194
2.164787 -4.192403 -0.302391
2.053797 -5.995233 -0.369067
2.425265 -5.319297 0.340462
2.081960 -4.566330 -0.233772
1.657876 -4.163943 -0.234884
2.653381 -5.819620 0.785326
2.213570 -5.559630 0.488512
1.892376 -3.664841 -0.168040
4.172259 -9.150953 2.694824
2.650719 -6.657578 1.306523
1.982457 -4.348092 -0.111198
1.829190 -3.574550 -0.070089
1.676400 -4.255789 -0.133118
1.821303 -4.033737 -1.238968
2.001050 -5.079961 -1.091981
2.036174 -4.509624 0.000000
2.035114 -6.012484 -0.073898
2.225040 -4.927917 -0.841197
3.168858 -8.044612 -1.100554
1.998898 -3.906188 0.025503
1.905775 -4.838090 -0.030222
2.242129 -4.965765 -0.586892
3.275251 -9.676310 -0.953606
2.040559 -4.519337 0.115385
1.899183 -5.610893 0.068962
2.211839 -4.898679 -0.375848
4.116045 -10.449184 -0.916815
2.382403 -4.655622 0.152202
1.889393 -4.796502 0.089985
2.156681 -4.214523 -0.303415
2.022847 -5.976243 -0.367439
2.417255 -5.353626 0.342090
2.550200 -6.474058 0.283486
2.053699 -4.548440 -0.232469
1.796323 -4.560232 -0.256865
2.648371 -5.865490 0.790201
1.891676 -3.696658 -0.169179
2.040420 -6.028161 -0.222240
4.022624 -8.909122 2.619249
2.632069 -6.681894 1.309393
1.996128 -4.420932 -0.112873
1.825749 -3.598747 -0.070438
1.976703 -5.069981 -0.158369
1.788337 -3.997876 -1.226029
1.957659 -5.021136 -1.077861
2.038386 -4.556869 0.000000
2.040765 -6.099205 -0.074875
1.952828 -4.365601 -0.744041
3.145082 -8.066716 -1.102069
1.806089 -3.559996 0.023201
1.872892 -4.803719 -0.029966
2.284867 -5.107883 -0.602742
3.245245 -9.699015 -0.954722
2.039467 -4.559286 0.116223
1.884662 -5.632661 0.069148
2.183320 -4.880873 -0.373895
4.154850 -10.656639 -0.933739
2.244936 -4.425009 0.144405
2.000484 -5.130974 0.096128
2.094999 -4.129469 -0.296763
2.001974 -5.983268 -0.367439
2.408336 -5.383903 0.343485
4.072301 -10.444911 0.456736
1.970916 -4.406038 -0.224838
1.767335 -4.532979 -0.254981
2.658682 -5.943558 0.799463
2.194004 -5.627329 0.493069
1.858869 -3.664032 -0.167388
2.090398 -6.247542 -0.230057
2.604440 -6.680042 1.307240
1.972519 -4.409622 -0.112407
1.818566 -3.615817 -0.070647
1.931645 -5.005975 -0.156158
1.758765 -3.968878 -1.215246
1.916116 -4.965730 -1.064525
2.268793 -5.119823 0.000000
2.008160 -6.072114 -0.074456
1.935976 -4.368777 -0.743426
3.114047 -8.070240 -1.101059
1.948215 -3.873593 0.025200
1.858992 -4.817690 -0.030013
2.209018 -4.984932 -0.587320
3.260140 -9.857753 -0.969221
2.064043 -4.657777 0.118549
1.877548 -5.677180 0.069614
4.909672 -11.079304 -0.847402
4.038689 -10.466507 -0.915839
1.968163 -5.100613 0.095430
2.204330 -4.382823 -0.314415
1.987345 -6.009176 -0.368601
2.347464 -5.297355 0.337439
4.035816 -10.459062 0.456736
1.832494 -4.135259 -0.210693
1.633584 -4.233531 -0.237815
2.597707 -5.862058 0.787276
2.092541 -5.422945 0.474518
1.919695 -3.816890 -0.174064
2.146400 -6.490114 -0.238713
2.142960 -4.835864 1.417293
2.421026 -6.274237 1.226166
1.940913 -4.379920 -0.111477
1.754183 -3.518346 -0.068623
1.711618 -4.482284 -0.139635
1.738707 -3.960885 -1.210932
1.890375 -4.950403 -1.059818
2.230007 -5.080096 0.000000
2.142280 -6.554312 -0.080277
1.909593 -4.350174 -0.739122
1.817542 -4.759671 -0.648514
1.870430 -3.751502 0.024364
1.849299 -4.842835 -0.030129
2.196400 -5.003538 -0.588605
3.318511 -10.152992 -0.997104
2.155465 -4.910285 0.124783
1.840323 -5.630474 0.068962
4.915877 -11.198678 -0.855214
1.881599 -4.927419 -0.430581
1.956054 -5.122398 0.095709
2.076806 -4.165429 -0.298298
3.564255 -10.904850 -0.668134
2.386742 -5.437149 0.345811
2.256993 -5.910480 0.257759
1.784322 -4.064797 -0.206784
1.627346 -4.261598 -0.239071
2.612336 -5.951067 0.798001
2.072176 -5.426492 0.474192
1.842162 -3.694804 -0.168202
4.497098 -13.758883 -0.505484
2.408938 -6.308383 1.231188
1.914361 -4.361036 -0.110826
1.784419 -3.610498 -0.070298
2.005474 -5.307334 -0.165118
1.731014 -3.981060 -1.215246
1.913290 -5.063376 -1.082568
2.197905 -5.054835 0.000000
1.968178 -6.093597 -0.074550
1.903853 -4.378562 -0.742811
1.824760 -4.829088 -0.657100
2.599898 -5.260494 0.034104
1.945493 -5.148597 -0.031989
2.177335 -5.007527 -0.588177
3.174103 -9.827213 -0.964016
2.157446 -4.961786 0.125900
1.800988 -5.575965 0.068217
4.007797 -10.606329 -0.925602
3.335800 -6.749478 0.219110
1.940988 -5.136676 0.095849
2.009193 -4.065294 -0.290623
3.513894 -10.879226 -0.665808
2.275394 -5.233048 0.332323
3.810126 -10.083206 0.439150
1.768528 -4.067337 -0.206598
1.608224 -4.256042 -0.238443
2.718195 -6.251422 0.836999
2.330836 -6.168378 0.538307
1.947897 -3.941271 -0.179112
2.029775 -6.284305 -0.230616
2.637589 -6.066041 1.772393
2.317353 -6.132699 1.195314
2.100042 -4.829765 -0.122550
1.759489 -3.591563 -0.069810
1.964532 -5.254380 -0.163256
1.714060 -3.980002 -1.213089
1.910714 -5.110436 -1.091197
2.241952 -5.205754 0.000000
1.959056 -6.138534 -0.075015
1.902627 -4.417851 -0.748345
1.702282 -4.552958 -0.618714
1.930421 -3.940479 0.025503
1.996149 -5.338941 -0.033128
2.199169 -5.106413 -0.598887
3.119196 -9.773733 -0.957696
2.179657 -5.061107 0.128226
1.793674 -5.620321 0.068682
1.900307 -4.412463 -0.335947
1.854134 -4.959105 -0.432208
2.158308 -4.405654 0.142776
1.945456 -5.203358 0.096966
1.986210 -4.054359 -0.289344
3.774560 -11.827257 -0.723017
5.125496 -11.901269 0.754645
2.242269 -5.997221 0.260852
1.733774 -4.025778 -0.204179
1.594757 -4.265372 -0.238652
2.920923 -6.782308 0.906708
2.395854 -6.408001 0.558486
1.914787 -3.908566 -0.177321
3.866161 -12.114281 -0.444061
2.628625 -6.103600 1.780675
2.080947 -5.565746 1.083388
2.076843 -4.822375 -0.122178
2.167954 -4.464725 -0.086634
1.892081 -5.114957 -0.158718
1.694112 -3.971788 -1.208776
1.875174 -5.069252 -1.080999
1.961686 -4.599107 0.000000
1.934009 -6.133892 -0.074875
1.898050 -4.449915 -0.752650
1.683626 -4.551430 -0.617704
1.932379 -3.979577 0.025712
1.973338 -5.334622 -0.033058
2.143884 -5.026263 -0.588605
3.384466 -10.734150 -1.050640
2.202770 -5.164320 0.130646
1.746382 -5.538813 0.067611
1.900549 -4.455773 -0.338737
1.832663 -4.954330 -0.431232
2.130691 -4.387984 0.141962
1.905081 -5.150102 0.095849
1.998200 -4.115130 -0.293181
3.710438 -11.768002 -0.718598
4.629582 -10.853899 0.687203
2.203296 -5.956282 0.258736
1.743226 -4.086935 -0.206970
1.930477 -5.218755 -0.291616
2.517164 -5.901408 0.787763
2.044284 -5.526415 0.481027
1.904623 -3.922416 -0.177647
2.072405 -6.572825 -0.240667
2.655813 -6.226463 1.813804
2.053316 -5.550832 1.079083
1.755626 -4.116007 -0.104126
2.152356 -4.472266 -0.086634
1.955283 -5.343062 -0.165583
1.683235 -3.984775 -1.210932
1.842639 -5.035249 -1.072369
1.923829 -4.554341 0.000000
1.774613 -5.697627 -0.069474
1.962481 -4.645842 -0.784625
1.906333 -3.961068 0.025549
1.905217 -5.206251 -0.032221
2.132515 -5.048371 -0.590319
3.339869 -10.723084 -1.048409
2.102257 -4.976739 0.125714
1.736551 -5.575425 0.067984
1.877220 -4.444001 -0.337342
3.912951 -10.692643 -0.929508
2.524562 -5.245652 0.169423
1.893964 -5.175499 0.096198
2.087689 -4.337897 -0.308531
4.384203 -14.076057 -0.858597
2.193479 -5.993962 0.260038
1.763154 -4.173971 -0.211065
1.880674 -5.139184 -0.286801
2.317341 -5.485915 0.731216
2.078413 -5.679531 0.493720
1.854522 -3.853413 -0.174227
2.001897 -6.427351 -0.235083
2.605495 -6.168072 1.794134
2.028517 -5.543184 1.076213
1.750584 -4.144213 -0.104684
2.143619 -4.494190 -0.086913
1.805970 -4.988937 -0.154413
1.679721 -4.015501 -1.218481
1.834398 -5.067467 -1.077861
1.909464 -4.564719 0.000000
1.864090 -6.059317 -0.073804
2.736345 -6.541442 -1.103148
1.688276 -4.663811 -0.631341
1.895939 -3.974919 0.025596
2.125624 -5.081467 -0.593318
3.344577 -10.871716 -1.061793
2.052465 -4.906575 0.123760
1.765299 -5.738193 0.069893
1.858616 -4.443164 -0.336784
3.867462 -10.683744 -0.927555
2.504515 -5.250823 0.169307
1.866358 -5.155755 0.095709
3.479072 -11.308897 -0.689064
2.820055 -6.741556 0.425578
2.190228 -6.050437 0.262155
1.733155 -4.143239 -0.209204
1.573118 -4.345690 -0.242211
2.253984 -6.226562 0.540586
1.841061 -3.859863 -0.174227
1.990029 -6.468688 -0.236339
2.539219 -6.070196 1.763075
2.290438 -6.327263 1.226883
1.780861 -4.257284 -0.107383
1.909144 -4.038826 -0.077977
1.771022 -4.946275 -0.152900
1.668641 -4.028457 -1.220637
1.811408 -5.059069 -1.074723
2.043529 -4.933517 0.000000
1.898738 -6.249484 -0.076040
1.822608 -4.400167 -0.740966
1.653259 -4.617375 -0.624270
1.873505 -3.963431 0.025479
2.182992 -6.096861 -0.037638
2.110916 -5.096204 -0.594175
2.127144 -5.135381 0.129343
1.796417 -5.912708 0.071942
1.882797 -4.545475 -0.344039
1.803527 -5.037058 -0.436765
2.127341 -4.500426 0.144871
2.031700 -5.674321 0.105203
1.968645 -4.164701 -0.295228
3.455826 -11.374464 -0.692320
2.512269 -6.065156 0.382322
2.202775 -6.152114 0.266226
1.741617 -4.204637 -0.211996
1.875720 -5.238685 -0.291616
2.139505 -5.975408 0.518129
1.856611 -3.927693 -0.176995
4.281177 -14.091017 -0.514279
2.503227 -6.043327 1.752723
2.205990 -6.161094 1.193162
1.779761 -4.296725 -0.108220
1.896731 -4.049087 -0.078047
1.985978 -5.608228 -0.173147
1.657493 -4.041385 -1.222794
1.805522 -5.098637 -1.081783
2.039957 -4.973928 0.000000
1.913691 -6.378665 -0.077530
1.790741 -4.366277 -0.734202
1.634483 -4.615637 -0.623260
1.859659 -3.969947 0.025479
3.778774 -9.213603 -1.072684
2.990491 -9.967826 -0.971451
2.179007 -5.312967 0.133623
1.787261 -5.957252 0.072408
1.836637 -4.478183 -0.338458
3.836698 -10.834500 -0.938295
2.091266 -4.464375 0.143475
2.005206 -5.662528 0.104854
1.945629 -4.153473 -0.293949
3.414953 -11.382632 -0.692087
2.703219 -6.591129 0.414880
2.270674 -6.412184 0.277135
1.881580 -4.587767 -0.230981
1.850756 -5.226373 -0.290569
2.244702 -5.473148 0.726341
2.239737 -6.324823 0.547746
1.883580 -4.021012 -0.180903
1.968944 -6.562830 -0.239271
2.487982 -6.066327 1.756864
2.214684 -6.254073 1.209664
1.741991 -4.247414 -0.106824
1.856341 -3.997317 -0.076930
1.910516 -5.452528 -0.168143
1.658580 -4.082545 -1.233577
1.769149 -5.049071 -1.070016
2.131850 -5.247486 0.000000
1.876615 -6.331288 -0.076878
1.758400 -4.328249 -0.726823
2.885373 -8.234725 -1.110655
2.151423 -4.632727 0.029687
2.268420 -6.473970 -0.039870
3.751193 -9.233452 -1.073541
2.971002 -10.023510 -0.975913
2.168902 -5.338688 0.134089
1.798186 -6.066686 0.073665
1.829286 -4.502732 -0.339854
3.882484 -11.080436 -0.958474
2.073082 -4.464033 0.143242
1.981127 -5.654048 0.104575
1.913350 -4.120077 -0.291135
3.348818 -11.298180 -0.686273
2.529544 -6.226399 0.391392
2.052476 -5.857675 0.252874
1.873876 -4.612490 -0.231911
2.010415 -5.737635 -0.318621
2.217574 -5.458492 0.723417
1.897078 -5.414176 0.468334
1.851718 -3.987362 -0.179112
1.936945 -6.534829 -0.238015
2.470760 -6.081703 1.758934
2.188727 -6.246528 1.206794
1.724886 -4.245757 -0.106638
1.830674 -3.978340 -0.076442
4.675668 -13.494902 -0.415646
1.640007 -4.077589 -1.230342
1.716843 -4.955149 -1.048835
2.080683 -5.173252 0.000000
1.826422 -6.241832 -0.075714
2.342073 -5.823152 -0.976477
2.863107 -8.263492 -1.113181
2.118519 -4.603872 0.029455
2.182952 -6.300432 -0.038754
3.723393 -9.257560 -1.074826
2.935996 -10.033819 -0.975913
1.923440 -4.782294 0.119945
1.770259 -6.049894 0.073385
1.865671 -4.638662 -0.349619
3.514876 -10.144628 -0.876458
2.064173 -4.485771 0.143707
1.954833 -5.642035 0.104226
1.877264 -4.079589 -0.287809
2.501835 -6.220372 0.390462
2.021549 -5.834591 0.251571
1.842854 -4.581933 -0.230050
1.951144 -5.631386 -0.312341
2.245914 -5.584069 0.739016
1.872947 -5.405696 0.467032
1.930963 -6.599101 -0.240109
2.461051 -6.118968 1.767217
2.154027 -6.216947 1.199619
2.129363 -5.294285 -0.132786
2.034125 -4.461416 -0.085587
3.729260 -10.886075 -0.334890
1.628613 -4.090446 -1.232499
1.723688 -5.031614 -1.063740
2.111440 -5.303121 0.000000
1.811282 -6.271225 -0.075993
2.305649 -5.790898 -0.969713
2.836816 -8.280944 -1.114191
2.122347 -4.654913 0.029734
2.181687 -6.368558 -0.039126
3.685170 -9.255720 -1.073112
2.935212 -10.162621 -0.987438
2.084243 -5.234811 0.131111
1.784646 -6.179001 0.074875
1.868656 -4.693340 -0.353247
3.432929 -10.021057 -0.864742
2.381902 -5.224190 0.167096
1.927350 -5.626122 0.103807
1.882885 -4.129703 -0.290879
1.933817 -5.645001 0.243104
1.841629 -4.625460 -0.231911
1.945714 -5.679730 -0.314644
2.227877 -5.595563 0.739503
1.860526 -5.431059 0.468659
3.215726 -11.133847 -0.404695
2.478265 -6.224442 1.795169
3.320897 -9.694025 1.868306
2.045783 -5.138214 -0.128692
2.016893 -4.464844 -0.085517
2.163696 -6.388693 -0.196303
1.610088 -4.085356 -1.229264
1.733794 -5.119331 -1.080999
2.078249 -5.273244 0.000000
1.793766 -6.292896 -0.076179
2.294117 -5.820974 -0.973402
2.805347 -8.283279 -1.113181
2.087972 -4.622195 0.029478
1.718060 -5.072874 -0.031129
3.657214 -9.279628 -1.074398
2.842948 -9.973639 -0.968105
2.030767 -5.152764 0.128878
1.868324 -6.554459 0.079346
2.133173 -5.412605 -0.406820
3.555228 -10.497437 -0.904773
2.380112 -5.268911 0.168260
1.908982 -5.636604 0.103877
1.838878 -4.070769 -0.286274
3.256594 -11.424794 -0.691854
1.874357 -5.534368 0.238056
1.835728 -4.657882 -0.233214
2.028385 -5.989162 -0.331391
2.276750 -5.776909 0.762415
1.845394 -5.448849 0.469636
1.839478 -4.072097 -0.182043
4.271586 -14.985592 -0.544153
2.490523 -6.319325 1.820016
2.052506 -6.060384 1.166615
1.992644 -5.056034 -0.126458
1.991572 -4.454300 -0.085168
2.144222 -6.412121 -0.196768
1.597187 -4.098686 -1.231420
1.710393 -5.114791 -1.078645
2.065248 -5.299820 0.000000
1.771753 -6.307438 -0.076272
2.268879 -5.822375 -0.972172
2.788621 -8.339148 -1.119242
2.106128 -4.710513 0.029989
1.934516 -5.785015 -0.035453
3.625888 -9.304719 -1.075683
2.750779 -9.792768 -0.949517
2.055977 -5.276030 0.131762
1.842061 -6.557734 0.079299
1.857383 -4.766399 -0.357711
3.642594 -10.892883 -0.937644
2.039992 -4.562595 0.145453
1.849274 -5.530104 0.101782
1.894925 -4.238142 -0.297531
3.173826 -11.298815 -0.683482
2.419879 -6.209872 0.388136
1.938015 -5.795479 0.248966
1.658243 -4.255368 -0.212740
1.971169 -5.894622 -0.325739
2.195449 -5.633940 0.742428
1.885147 -5.637380 0.485258
1.812409 -4.053589 -0.180903
2.835649 -10.094904 -0.366166
2.463434 -6.321641 1.817945
2.022980 -6.049560 1.163028
1.976120 -5.071100 -0.126645
1.980871 -4.472195 -0.085377
2.111788 -6.389196 -0.195837
1.587029 -4.115018 -1.234655
1.706069 -5.161695 -1.087274
2.025146 -5.251016 0.000000
1.843728 -6.652775 -0.080370
2.241430 -5.811821 -0.969098
2.763232 -8.360134 -1.120757
2.120450 -4.787323 0.030431
1.881674 -5.692988 -0.034848
3.593387 -9.317320 -1.075683
2.733598 -9.863718 -0.955465
1.998697 -5.182436 0.129250
1.905684 -6.876333 0.083071
1.842170 -4.776577 -0.357990
3.237964 -9.796431 -0.842285
2.025673 -4.573344 0.145569
1.855062 -5.612473 0.103179
2.133928 -4.817750 -0.337696
2.945601 -10.628695 -0.642320
2.366577 -6.136315 0.383020
1.840010 -5.566933 0.238870
1.617499 -4.194026 -0.209390
1.990696 -6.022833 -0.332438
2.168627 -5.623047 0.739991
1.839184 -5.564433 0.478423
1.859755 -4.198753 -0.187091
2.442743 -6.333807 1.818980
2.000617 -6.052848 1.162310
1.938261 -5.025732 -0.125342
2.236097 -5.093971 -0.097105
2.034691 -6.225144 -0.190601
1.572000 -4.116659 -1.233577
1.674320 -5.122586 -1.077861
1.836488 -4.809285 0.000000
1.872317 -6.844036 -0.082605
2.233425 -5.848761 -0.974017
2.744123 -8.395653 -1.124292
2.215499 -5.047047 0.032035
1.865270 -5.706800 -0.034895
3.559632 -9.321753 -1.074826
2.714536 -9.922669 -0.960298
1.972941 -5.166621 0.128692
2.599502 -9.502176 0.114688
1.901764 -4.980228 -0.372779
2.068352 -4.711836 0.149758
1.835197 -5.614792 0.103109
1.910959 -4.353286 -0.304694
2.751229 -10.056798 -0.607204
2.200912 -5.763618 0.359299
1.917148 -5.865520 0.251408
1.624964 -4.255359 -0.212182
2.131556 -5.581991 0.733654
1.748883 -5.350713 0.459547
1.865098 -4.248812 -0.189045
3.204633 -11.714162 -0.424099
2.431374 -6.367138 1.826227
1.984201 -6.070671 1.164463
1.955822 -5.121791 -0.127575
2.176117 -5.002338 -0.095220
1.968543 -6.091088 -0.186296
1.563789 -4.136261 -1.237890
1.475187 -4.564541 -0.959406
1.817701 -4.807865 0.000000
1.635354 -4.325554 -0.719444
2.713827 -8.397156 -1.123282
2.208324 -5.076374 0.032175
1.851256 -5.728179 -0.034988
3.534326 -9.348385 -1.076540
2.690960 -9.966221 -0.963644
1.943070 -5.139470 0.127854
2.571106 -9.522328 0.114828
1.890884 -5.001436 -0.373895
3.149627 -9.745613 -0.836101
2.210617 -5.081644 0.161278
1.821488 -5.636069 0.103388
1.902882 -4.374240 -0.305717
2.661655 -9.857687 -0.594646
2.221328 -5.875471 0.365811
1.803048 -5.579014 0.238870
1.599540 -4.230824 -0.210693
3.837539 -11.874158 -0.653990
2.107418 -5.574174 0.731704
1.713966 -5.303374 0.454990
1.771283 -4.071728 -0.180903
2.744779 -10.165545 -0.367701
3.087958 -8.167729 2.339724
1.960429 -6.065984 1.162310
1.965697 -5.199319 -0.129343
2.134903 -4.954810 -0.094173
1.932673 -6.052217 -0.184899
1.549340 -4.141695 -1.237890
1.572595 -4.924624 -1.033930
2.004121 -5.357416 0.000000
2.826008 -10.613462 -0.127866
1.610551 -4.305323 -0.715140
2.686912 -8.414137 -1.124292
2.247571 -5.216296 0.033012
1.879920 -5.887021 -0.035918
3.512819 -9.390465 -1.079967
2.670501 -10.029434 -0.968849
1.929321 -5.157458 0.128133
2.526529 -9.488729 0.114315
1.862229 -4.978108 -0.371662
3.432119 -10.747775 -0.921046
2.102682 -4.880028 0.154645
1.785986 -5.592865 0.102481
1.914454 -4.443178 -0.310066
8.171429 -30.688931 -1.849519
2.200804 -5.883189 0.365811
1.917299 -6.004074 0.256782
1.580561 -4.225154 -0.210135
3.703715 -11.598286 -0.638080
2.094902 -5.600090 0.734141
1.690592 -5.294134 0.453688
1.790271 -4.154966 -0.184323
1.932060 -6.050298 1.158005
2.007782 -5.367202 -0.133344
2.127014 -4.984302 -0.094592
2.052284 -6.505053 -0.198514
1.544233 -4.172365 -1.245438
1.617942 -5.128334 -1.075507
2.086762 -5.638224 0.000000
2.844803 -10.836038 -0.130427
1.585910 -4.284971 -0.710836
2.655138 -8.415896 -1.123282
2.252899 -5.279293 0.033360
1.954434 -6.194900 -0.037754
1.733798 -4.684551 -0.538056
2.777059 -10.577994 -1.020898
1.934903 -5.227916 0.129715
2.660973 -10.135815 0.121999
3.139089 -9.949861 -0.851723
2.065234 -4.839531 0.153133
1.771267 -5.614322 0.102760
1.920868 -4.501234 -0.313648
2.644484 -10.073008 -0.606506
2.174711 -5.875855 0.364881
1.880697 -5.961180 0.254665
1.563030 -4.223151 -0.209762
3.655997 -11.588285 -0.636824
2.082232 -5.625984 0.736578
1.715284 -5.436874 0.465405
1.794581 -4.205301 -0.186277
2.745815 -10.458983 -0.377613
1.401438 -3.786547 1.081864
1.905009 -6.038241 1.154418
1.940455 -5.242918 -0.130087
2.098703 -4.965909 -0.094103
1.920115 -6.160993 -0.187808
1.524361 -4.163262 -1.241125
1.537009 -4.931738 -1.033146
2.001053 -5.465180 0.000000
2.641609 -10.206997 -0.122744
1.566865 -4.279347 -0.708991
2.628104 -8.432691 -1.124292
2.264042 -5.357129 0.033802
1.929226 -6.190228 -0.037684
1.710598 -4.671903 -0.535914
2.570481 -9.932164 -0.957696
1.915266 -5.230884 0.129622
2.627579 -10.152787 0.122092
1.841149 -5.028458 -0.374453
3.094847 -9.930309 -0.849120
2.291138 -5.421245 0.171285
1.744517 -5.597561 0.102341
1.891158 -4.474820 -0.311345
2.086911 -5.699672 0.353485
1.833714 -5.883764 0.251083
1.544156 -4.217326 -0.209204
3.437243 -11.028938 -0.605422
2.063945 -5.636947 0.737066
1.657149 -5.317225 0.454665
1.856127 -4.391930 -0.194255
2.691259 -10.398843 -0.375100
1.372270 -3.747879 1.069440
1.868698 -5.996015 1.145091
1.951014 -5.328517 -0.132042
2.050308 -4.903824 -0.092777
1.942269 -6.317369 -0.192347
1.507054 -4.165462 -1.240047
1.647160 -5.357506 -1.121006
1.886154 -5.213287 0.000000
2.600423 -10.209311 -0.122650
1.553112 -4.292765 -0.710221
1.465769 -4.767519 -0.634877
2.022812 -4.838062 0.030478
1.881934 -6.121124 -0.037219
3.405589 -9.412969 -1.078253
2.442868 -9.590750 -0.923864
1.840747 -5.087784 0.125900
2.463195 -9.670552 0.116178
3.889371 -10.750134 -0.799409
3.183227 -10.353675 -0.884269
2.227120 -5.326715 0.168027
1.754745 -5.707434 0.104226
1.867803 -4.467317 -0.310322
2.651396 -10.409435 -0.625576
2.060935 -5.696378 0.352788
1.846345 -6.005368 0.255967
1.549702 -4.283341 -0.212182
3.385478 -11.011509 -0.603748
2.089561 -5.775498 0.754128
1.639063 -5.331171 0.455316
1.887042 -4.513333 -0.199303
2.638484 -10.358739 -0.373285
1.355241 -3.745854 1.067370
1.846818 -6.006907 1.145808
1.914214 -5.290844 -0.130925
2.059186 -4.973769 -0.093964
1.876064 -6.178728 -0.187925
1.476931 -4.127177 -1.227107
1.441560 -4.747710 -0.992354
1.874684 -5.238669 0.000000
2.607614 -10.389020 -0.124699
1.933634 -5.403401 -0.892849
2.088536 -5.044662 0.031733
1.886123 -6.211858 -0.037731
1.684345 -4.706782 -0.538484
1.929418 -5.391621 0.133251
2.558928 -10.195049 0.122371
3.857201 -10.778671 -0.800525
3.123902 -10.288426 -0.877760
2.196278 -5.304902 0.167096
1.705763 -5.617852 0.102481
1.873575 -4.525445 -0.313904
2.618934 -10.434120 -0.626506
1.824210 -6.007952 0.255805
1.542819 -4.311296 -0.213299
4.294029 -14.142184 -0.774572
2.184429 -6.104228 0.796051
1.601912 -5.275823 0.450108
1.852930 -4.475579 -0.197349
2.601336 -10.364008 -0.373145
1.338252 -3.739648 1.064264
2.740474 -9.025623 1.719789
1.770430 -4.947339 -0.122271
1.724770 -4.207514 -0.079374
1.871709 -6.242687 -0.189670
1.454805 -4.110520 -1.220637
1.582684 -5.278705 -1.102179
1.847045 -5.218786 0.000000
2.554052 -10.328170 -0.123861
2.087512 -5.898221 -0.973402
1.432451 -4.777636 -0.634877
2.034503 -4.963096 0.031175
1.891999 -6.310359 -0.038289
1.662598 -4.697637 -0.536770
2.429395 -9.824079 -0.944684
2.003982 -5.662208 0.139765
2.538689 -10.266045 0.123116
3.824880 -10.807117 -0.801641
3.104000 -10.352733 -0.882316
2.112536 -5.153455 0.162092
1.701075 -5.673574 0.103388
1.915302 -4.672311 -0.323625
2.575787 -10.416062 -0.624878
2.025115 -5.721920 0.353485
1.794045 -5.983656 0.254502
1.529094 -4.320422 -0.213485
3.398005 -11.333323 -0.620076
1.989583 -5.621524 0.732191
1.575472 -5.254651 0.447830
1.860036 -4.537490 -0.199791
2.592974 -10.485565 -0.377194
3.113166 -8.796184 2.500192
2.756418 -9.193448 1.749923
1.757153 -4.964798 -0.122550
2.153758 -5.306724 -0.099967
1.828342 -6.176339 -0.187459
1.441719 -4.119209 -1.221716
1.579834 -5.336851 -1.113162
1.975491 -5.644275 0.000000
2.416695 -9.921210 -0.118879
1.906310 -5.446613 -0.897768
1.405628 -4.748363 -0.630331
2.066805 -5.092477 0.031942
1.893802 -6.397469 -0.038777
1.643562 -4.695904 -0.535914
2.385661 -9.793804 -0.940966
1.988167 -5.680492 0.140044
2.284170 -9.377156 0.112360
3.800312 -10.858064 -0.804432
2.979575 -10.065329 -0.856931
2.100548 -5.175618 0.162558
1.702829 -5.752340 0.104714
1.900482 -4.682667 -0.323881
2.539411 -10.424990 -0.624878
2.011724 -5.747799 0.354648
1.799239 -6.078026 0.258247
1.514003 -4.325733 -0.213485
3.370894 -11.387246 -0.622379
1.958143 -5.594708 0.727804
1.554856 -5.252473 0.447179
1.809616 -4.458780 -0.196046
2.584738 -10.611073 -0.381382
3.064572 -8.755942 2.485698
2.739947 -9.255839 1.759967
1.988167 -5.680492 -0.140044
2.087507 -5.195456 -0.097733
1.888643 -6.462842 -0.195954
1.434891 -4.146057 -1.228185
1.529290 -5.233152 -1.090412
2.390447 -9.964588 -0.119298
1.885994 -5.449500 -0.897153
2.122089 -5.281526 0.033081
1.874825 -6.415558 -0.038847
3.302447 -9.542282 -1.087678
2.341241 -9.759471 -0.936876
1.984021 -5.732745 0.141161
2.263554 -9.435633 0.112965
3.701052 -10.694036 -0.791317
2.942186 -10.068014 -0.856280
2.086941 -5.194048 0.162907
1.950855 -6.675729 0.121399
1.885613 -4.692976 -0.324137
2.326948 -9.699891 -0.580925
1.972059 -5.698182 0.351160
1.491053 -4.308336 -0.212368
4.207325 -14.397252 -0.786086
2.071045 -5.984198 0.777526
1.566706 -5.361189 0.455967
1.801492 -4.483612 -0.196860
2.569132 -10.709437 -0.384592
1.304072 -3.768062 1.068405
2.619318 -8.963175 1.702569
1.667311 -4.191899 -0.078745
1.837260 -6.369512 -0.192928
1.421656 -4.154685 -1.229264
1.544711 -5.355288 -1.114731
1.929563 -5.639007 0.000000
2.621372 -11.097838 -0.132755
1.987243 -5.807571 -0.954955
2.475457 -8.582048 -1.136919
2.108075 -5.300051 0.033151
1.956624 -6.783329 -0.041032
1.610739 -4.707264 -0.535914
2.301665 -9.744328 -0.934646
1.951050 -5.701801 0.140230
2.356568 -9.976766 0.119344
3.670158 -10.725767 -0.792713
2.827470 -9.802423 -0.832847
2.045154 -5.141859 0.161045
1.930866 -6.694027 0.121608
1.860368 -4.677275 -0.322602
2.696978 -11.417925 -0.683250
1.881051 -5.497232 0.338369
2.759203 -9.565751 0.405607
1.962401 -5.734972 -0.282351
4.241178 -14.703544 -0.801996
1.982019 -5.792305 0.751690
1.567870 -5.435575 0.461825
1.776967 -4.467591 -0.195883
2.555625 -10.819494 -0.388222
1.289660 -3.768936 1.067370
3.064610 -10.624552 2.016106
3.757099 -10.979844 -0.270039
1.657064 -4.208858 -0.078955
1.844573 -6.479715 -0.196070
1.419489 -4.196110 -1.240047
1.571113 -5.519089 -1.147678
1.917563 -5.668455 -0.930973
2.448745 -8.602086 -1.138434
2.086631 -5.299933 0.033105
1.803707 -6.336160 -0.038289
1.593023 -4.709091 -0.535485
2.228851 -9.585497 -0.918659
1.904226 -5.629027 0.138276
2.371551 -10.199200 0.121905
3.644205 -10.772531 -0.795224
2.781229 -9.770054 -0.829267
2.031588 -5.160127 0.161394
1.958953 -6.881515 0.124889
1.864503 -4.735741 -0.326183
2.409302 -10.361553 -0.619529
1.773557 -5.242761 0.322323
2.756435 -9.682956 0.410167
1.992306 -5.889400 -0.289610
3.173815 -11.149149 -0.607516
1.966877 -5.814230 0.753640
1.544521 -5.425678 0.460523
1.660336 -4.217166 -0.184648
2.439076 -10.489599 -0.376077
2.931855 -8.666775 2.451534
3.045821 -10.699525 2.028303
2.178454 -6.439667 -0.158189
1.649624 -4.233248 -0.079304
1.834919 -6.532307 -0.197467
1.399947 -4.186427 -1.235734
1.531685 -5.452793 -1.132774
1.911715 -5.716829 0.000000
2.251171 -9.837015 -0.117482
1.818797 -5.438962 -0.892234
2.422997 -8.625861 -1.140455
2.069571 -5.310911 0.033128
1.935182 -6.889244 -0.041590
3.212432 -9.606515 -1.091105
2.289556 -10.004745 -0.958068
1.878224 -5.616677 0.137811
2.310953 -10.098245 0.120602
3.604050 -10.777616 -0.794666
2.721234 -9.687586 -0.821456
2.049857 -5.260323 0.164303
1.920860 -6.838256 0.123982
1.759549 -4.515337 -0.310578
2.979762 -13.020763 -0.777900
1.810968 -5.415552 0.332555
2.847996 -10.138858 0.429055
1.933721 -5.782635 -0.284026
2.968520 -10.567924 -0.575277
1.967975 -5.885070 0.761927
1.744436 -6.210188 0.526591
1.708005 -4.383064 -0.191650
2.970508 -12.980324 -0.465001
2.902811 -8.680620 2.452569
2.461463 -8.762802 1.659521
2.142013 -6.405515 -0.157166
2.047863 -5.309921 -0.099339
1.382907 -4.183973 -1.233577
1.492738 -5.386289 -1.117869
1.882960 -5.696882 0.000000
2.199246 -9.766774 -0.116551
1.906472 -5.768017 -0.945116
2.394990 -8.641913 -1.141465
2.036626 -5.280784 0.032895
1.921804 -6.934504 -0.041823
3.176382 -9.610118 -1.090248
2.272990 -10.094269 -0.965875
1.842292 -5.573840 0.136601
2.348615 -10.430119 0.124466
3.567658 -10.793921 -0.794945
2.788551 -10.062010 -0.852374
2.035798 -5.278638 0.164652
2.607276 -9.407910 0.170405
1.841450 -4.774713 -0.327974
2.323749 -10.319685 -0.616041
1.741925 -5.270181 0.323253
2.675960 -9.655744 0.408213
3.637701 -11.005836 -0.539947
3.116171 -11.244172 -0.611493
1.993520 -6.031379 0.779964
2.678882 -9.666290 0.818852
1.715704 -4.448664 -0.194255
2.476435 -10.997760 -0.393666
1.244059 -3.763891 1.062193
2.453980 -8.854769 1.675305
3.633130 -10.992007 -0.269387
1.927519 -5.047672 -0.094313
2.953073 -10.794615 -0.325698
1.385779 -4.239795 -1.248673
1.477973 -5.402559 -1.120222
1.671439 -5.113775 0.000000
2.172907 -9.801349 -0.116876
1.809975 -5.537625 -0.906377
2.371556 -8.668945 -1.143990
2.023384 -5.298718 0.032965
3.133376 -9.586576 -1.086393
2.155027 -9.720699 -0.929441
1.823799 -5.579918 0.136601
2.223983 -10.031737 0.119624
3.601267 -11.018089 -0.810570
2.665750 -9.744339 -0.824710
1.992609 -5.218126 0.162558
2.583452 -9.443508 0.170894
4.247883 -11.124105 -0.763141
2.300751 -10.378016 -0.619064
1.767860 -5.408775 0.331392
2.755716 -10.073198 0.425473
3.885456 -11.887568 -0.582570
3.052517 -11.158120 -0.606260
2.001878 -6.124753 0.791176
2.853005 -10.428827 0.882642
1.631080 -4.271377 -0.186277
2.816049 -8.615711 2.428758
2.390338 -8.737601 1.651628
2.109544 -6.454156 -0.158003
1.931614 -5.114567 -0.095430
2.825012 -10.477229 -0.315807
1.365497 -4.230183 -1.244360
1.489816 -5.525340 -1.144541
1.844372 -5.713695 0.000000
2.165064 -9.938212 -0.118413
1.861302 -5.766141 -0.942657
2.344931 -8.696735 -1.146516
2.166470 -5.736424 0.035639
3.624857 -13.443647 -0.080925
3.096997 -9.594213 -1.085964
2.088866 -9.588442 -0.916057
1.798421 -5.571343 0.136229
2.147185 -9.856142 0.117435
3.506925 -10.864132 -0.798293
2.628979 -9.750196 -0.824385
1.938153 -5.131883 0.159649
2.555069 -9.476084 0.171313
4.123872 -10.919273 -0.748047
2.255048 -10.351263 -0.616971
1.686690 -5.225211 0.319765
2.519004 -9.342326 0.394209
3.801355 -11.776247 -0.576428
3.162387 -11.728467 -0.636615
1.947706 -6.033815 0.778501
2.924778 -10.847235 0.917140
1.605529 -4.251153 -0.185137
2.205586 -10.124222 -0.361838
1.222500 -3.787193 1.066335
2.377761 -8.818493 1.665261
1.982686 -6.142178 -0.150187
1.913749 -5.121278 -0.095430
2.763764 -10.394289 -0.313014
1.340188 -4.201896 -1.234655
1.498741 -5.636643 -1.166506
1.820770 -5.708665 0.000000
2.094337 -9.777535 -0.116411
1.843565 -5.780134 -0.943887
2.321697 -8.731710 -1.150051
2.531475 -6.774341 0.042032
2.699106 -10.151114 -0.061048
3.057446 -9.586020 -1.083822
2.077071 -9.696928 -0.925723
1.804480 -5.657593 0.138183
2.129522 -9.941798 0.118367
3.147667 -9.868890 -0.724351
2.612344 -9.824811 -0.829918
1.910431 -5.112399 0.158834
2.529170 -9.512000 0.171801
4.006084 -10.720463 -0.733465
2.163701 -10.101364 -0.601623
1.681788 -5.272915 0.322323
2.498702 -9.397413 0.396163
3.715301 -11.648595 -0.569541
2.688267 -10.110352 -0.548272
3.434641 -10.768642 1.387848
2.652297 -9.975073 0.842611
1.604670 -4.294170 -0.186765
2.129206 -9.940326 -0.354998
3.369527 -10.564488 2.971243
2.363143 -8.887587 1.676740
1.940576 -6.084294 -0.148605
1.967978 -5.322990 -0.099060
2.830885 -10.798369 -0.324883
1.347508 -4.276350 -1.255143
1.447228 -5.520429 -1.141403
1.936676 -6.146090 0.000000
2.033825 -9.659541 -0.114921
1.823377 -5.786534 -0.943887
2.292210 -8.743601 -1.150556
2.097242 -5.672623 0.035150
2.681914 -10.230120 -0.061467
3.023966 -9.596633 -1.083822
2.026799 -9.626174 -0.918287
1.781116 -5.652415 0.137904
2.047834 -9.726078 0.115712
3.625270 -11.504887 -0.843495
2.575001 -9.822301 -0.828941
1.878709 -5.081535 0.157671
2.527392 -9.640698 0.173966
4.068305 -11.003959 -0.751885
2.080709 -9.882216 -0.588134
1.668173 -5.293988 0.323253
2.485141 -9.479533 0.399257
3.608571 -11.451891 -0.559304
3.764184 -14.358422 -0.777922
1.782636 -5.657241 0.728291
2.844936 -10.851965 0.915839
1.607689 -4.348479 -0.188882
2.045902 -9.716900 -0.346761
3.091102 -9.809689 2.755905
2.848023 -10.863740 2.047675
1.943363 -6.167311 -0.150466
1.906798 -5.213390 -0.096896
2.692132 -10.417201 -0.313131
1.344021 -4.317807 -1.265926
1.443652 -5.586208 -1.153954
1.928287 -6.194825 0.000000
2.047908 -9.897672 -0.117668
1.832535 -5.887210 -0.959259
2.262668 -8.755389 -1.151061
2.054070 -5.616047 0.034755
2.593144 -10.034165 -0.060235
2.990449 -9.607130 -1.083822
2.016587 -9.746293 -0.929069
1.774448 -5.700598 0.138927
2.014681 -9.737083 0.115759
3.554254 -11.418413 -0.836241
2.543691 -9.842808 -0.829918
1.854092 -5.069286 0.157089
2.496727 -9.661077 0.174175
4.025756 -11.006845 -0.751117
2.040537 -9.862046 -0.586506
1.641375 -5.273089 0.321625
2.441036 -9.445585 0.397466
3.565012 -11.452972 -0.558746
3.715040 -14.375340 -0.778131
1.741638 -5.595195 0.719517
2.538704 -9.823508 0.828290
1.549941 -4.237705 -0.183834
2.004681 -9.688750 -0.345505
3.070620 -9.864688 2.768328
2.446762 -9.467741 1.782927
1.946782 -6.254240 -0.152420
1.889949 -5.223775 -0.096966
2.627133 -10.314172 -0.309756
1.330072 -4.326154 -1.267004
1.431888 -5.621621 -1.160230
1.897248 -6.170931 0.000000
2.583011 -12.707253 -0.150962
1.801520 -5.859570 -0.953725
2.236989 -8.782460 -1.153587
2.029011 -5.608138 0.034662
2.637086 -10.353251 -0.062094
2.946377 -9.583298 -1.079967
2.138048 -10.518235 -1.001937
1.719283 -5.592088 0.136136
2.289016 -11.260931 0.133779
3.486231 -11.339212 -0.829544
2.505381 -9.836174 -0.828616
1.843187 -5.094527 0.157671
2.473846 -9.712366 0.174943
3.918048 -10.829394 -0.738070
2.217687 -10.910023 -0.648366
1.759085 -5.721549 0.348602
2.454415 -9.636080 0.405119
3.503875 -11.396602 -0.555395
1.759432 -5.722677 0.735116
2.740568 -10.759522 0.906400
1.537859 -4.250606 -0.184160
2.650891 -13.041191 -0.464722
3.050928 -9.923357 2.781787
2.405928 -9.445718 1.777187
1.870880 -6.085170 -0.148140
2.006455 -5.606895 -0.103947
2.579433 -10.276744 -0.308360
1.298176 -4.275485 -1.250830
1.417031 -5.645607 -1.164152
1.891965 -6.231101 0.000000
1.979542 -9.915649 -0.117715
1.789093 -5.892296 -0.958029
2.207285 -8.794065 -1.154092
2.470336 -6.903177 0.042613
2.608720 -10.393429 -0.062280
2.889798 -9.517417 -1.071399
1.930562 -9.670305 -0.920518
1.705561 -5.617188 0.136601
1.920031 -9.617553 0.114176
3.417645 -11.255859 -0.822568
2.115031 -5.910302 0.182689
2.531450 -10.085575 0.181505
2.013412 -5.626336 -0.382978
2.186625 -10.952942 -0.650459
1.679933 -5.532784 0.336741
2.518061 -10.032233 0.421402
4.291781 -14.134785 -0.688102
2.621721 -10.445225 -0.564391
1.759055 -5.793366 0.743403
2.602056 -10.366879 0.872553
1.552637 -4.338734 -0.187742
2.658570 -13.316940 -0.474214
3.024128 -9.959826 2.789034
2.749431 -10.954037 2.059155
1.885644 -6.210283 -0.151024
2.008221 -5.674188 -0.105063
2.563702 -10.367194 -0.310803
1.292095 -4.309507 -1.259456
1.398257 -5.654326 -1.164937
1.864460 -6.218509 0.000000
1.950305 -9.949973 -0.118041
1.758299 -5.864431 -0.952495
2.180385 -8.817123 -1.156112
2.005824 -5.667415 0.034941
2.425512 -9.808377 -0.058724
2.867980 -9.565539 -1.075683
2.050010 -10.458648 -0.994873
1.704319 -5.684393 0.138090
1.873370 -9.557470 0.113384
4.276780 -14.264291 -1.041325
2.413683 -9.760542 -0.820805
2.030355 -5.736727 0.177103
2.539435 -10.269061 0.184646
2.146844 -10.952669 -0.649994
1.631940 -5.442988 0.330927
2.412030 -9.753856 0.409352
2.578533 -10.427168 -0.562926
1.758205 -5.864120 0.751690
2.406984 -9.733450 0.818527
1.922854 -5.432985 -0.234800
2.056131 -10.489872 -0.373285
2.997111 -9.996227 2.796281
2.252073 -9.107018 1.710461
1.853619 -6.182352 -0.150187
1.761156 -5.031888 -0.093056
2.530336 -10.387734 -0.311152
1.301097 -4.395247 -1.283179
1.376655 -5.651551 -1.163368
1.821169 -6.152106 0.000000
2.275248 -11.826306 -0.140205
1.728842 -5.840215 -0.947576
2.150533 -8.828537 -1.156617
1.982065 -5.663057 0.034871
2.362859 -9.700195 -0.058026
2.830057 -9.560239 -1.073969
2.036815 -10.586979 -1.006398
1.762787 -5.954885 0.144511
1.864177 -9.689637 0.114874
3.066020 -10.357346 -0.755323
2.541885 -10.435146 -0.876784
1.961447 -5.604147 0.172798
2.569830 -10.549867 0.189533
3.792563 -10.835919 -0.735768
1.990910 -10.348371 -0.613716
1.951838 -6.593520 0.400462
2.440396 -10.018504 0.420099
3.414963 -11.536114 -0.560421
2.526047 -10.370128 -0.559367
1.699409 -5.740788 0.735116
2.313550 -9.497765 0.798023
1.939526 -5.541517 -0.239196
2.125234 -11.046565 -0.392829
2.905170 -9.813980 2.742447
2.196987 -9.019241 1.692525
1.893322 -6.395845 -0.155212
2.033960 -5.877042 -0.108554
2.423175 -10.101016 -0.302309
1.288989 -4.410854 -1.286414
1.356004 -5.652508 -1.162583
1.816513 -6.216016 0.000000
1.720640 -5.887945 -0.954340
2.120628 -8.839848 -1.157122
1.963593 -5.673721 0.034895
2.328985 -9.708385 -0.058026
2.800015 -9.581511 -1.075255
1.908240 -10.108743 -0.960298
1.744233 -5.968678 0.144697
1.844438 -9.770761 0.115759
3.252581 -11.130167 -0.810849
2.338042 -9.746140 -0.818201
1.931411 -5.580733 0.171867
2.379983 -9.920968 0.178084
3.793880 -10.962260 -0.743442
2.124400 -11.253837 -0.666971
3.038829 -10.398719 0.630925
2.273951 -9.478976 0.397140
3.342171 -11.436741 -0.555023
2.455356 -10.235163 -0.551621
1.625905 -5.563766 0.711717
2.303632 -9.602702 0.806159
4.229865 -12.222019 -0.526915
2.481154 -13.143712 -0.467095
2.754933 -9.427241 2.631672
2.401408 -10.010282 1.876916
1.897905 -6.494535 -0.157445
1.986241 -5.804643 -0.107088
2.378710 -10.070499 -0.301145
1.260773 -4.370915 -1.273474
1.338068 -5.664841 -1.164152
1.800347 -6.241536 0.000000
1.848188 -9.981650 -0.118180
1.680360 -5.825558 -0.943272
2.091583 -8.854920 -1.158132
1.946366 -5.688109 0.034941
2.292324 -9.704777 -0.057956
2.758837 -9.564479 -1.072256
1.872942 -10.115343 -0.960298
1.928421 -6.685551 0.161911
1.980721 -10.697434 0.126655
4.067454 -14.101263 -1.026257
1.917097 -5.602573 0.172332
3.724576 -10.884794 -0.737303
2.031305 -10.970624 -0.649762
2.948283 -10.221260 0.619529
2.235337 -9.463518 0.396163
3.323269 -11.521282 -0.558560
2.426041 -10.270884 -0.553086
1.789128 -6.202642 0.792638
2.282012 -9.661123 0.810390
1.946079 -5.687272 -0.244895
1.936708 -10.459728 -0.371470
2.757345 -9.559308 2.665836
2.371879 -10.041582 1.881221
1.832000 -6.351274 -0.153816
2.395303 -7.080684 -0.130474
2.317283 -9.965804 -0.297771
1.265547 -4.445679 -1.293962
1.302296 -5.600710 -1.150032
1.764312 -6.197769 0.000000
1.826195 -10.058878 -0.119018
1.878609 -6.599276 -1.067483
2.062459 -8.869896 -1.159142
1.907273 -5.638033 0.034593
2.314601 -9.954271 -0.059398
2.727612 -9.581699 -1.073112
1.813434 -9.988585 -0.947658
2.664912 -9.361444 0.226490
1.786185 -9.838495 0.116411
2.890750 -10.154779 -0.738303
2.382811 -10.247620 -0.858883
1.901373 -5.620593 0.172681
3.658417 -10.814538 -0.731674
1.841063 -10.140769 -0.600227
2.831682 -9.947281 0.602320
2.199575 -9.459584 0.395675
3.262291 -14.029946 -0.754894
1.759857 -6.182120 0.789226
2.225703 -9.571951 0.802254
1.937742 -5.728104 -0.246360
1.895901 -10.442825 -0.370633
2.678474 -9.409083 2.621319
2.414351 -10.383260 1.943641
1.850330 -6.499935 -0.157259
2.036992 -6.091459 -0.112114
2.468897 -10.788421 -0.322090
1.260437 -4.487153 -1.304745
1.293238 -5.651103 -1.159446
1.763220 -6.277058 0.000000
1.779159 -9.998247 -0.118227
1.864112 -6.636235 -1.072403
2.035910 -8.896382 -1.161668
1.888849 -5.648450 0.034616
2.309286 -10.090961 -0.060165
2.665110 -9.487785 -1.061546
1.888799 -10.614385 -1.006398
2.633300 -9.374540 0.226583
3.195200 -11.374905 -0.826196
2.297221 -10.038243 -0.840658
1.886814 -5.642363 0.173147
2.341984 -10.233844 0.183250
3.613049 -10.804528 -0.730139
1.797958 -10.103887 -0.597669
2.803421 -9.980171 0.603716
2.560620 -11.189222 0.467645
2.793243 -9.943938 -0.481132
3.002107 -13.118404 -0.705279
1.736120 -6.180581 0.788251
2.197613 -9.602981 0.804207
1.896188 -5.670396 -0.243592
1.860137 -10.453316 -0.370772
2.657107 -9.459293 2.632708
2.062066 -9.010677 1.685350
1.831955 -6.521754 -0.157631
3.302210 -9.990808 -0.183669
3.161995 -14.042305 -0.418904
1.185100 -4.276229 -1.242203
1.269195 -5.636451 -1.155523
1.749844 -6.314013 0.000000
1.836303 -10.532396 -0.124466
1.828269 -6.596995 -1.065024
2.004843 -8.903434 -1.161668
1.859078 -5.624626 0.034430
2.250323 -9.993601 -0.059537
2.664901 -9.615839 -1.074826
1.828479 -10.487515 -0.993758
2.619784 -9.453041 0.228258
1.710585 -9.811322 0.115945
3.129898 -11.293701 -0.819499
2.290192 -10.170659 -0.851072
1.839501 -5.565396 0.170587
2.151618 -9.555258 0.170964
3.580322 -10.832235 -0.731163
1.777080 -10.192714 -0.602553
2.833621 -10.224636 0.617902
2.346828 -10.422179 0.435242
2.785193 -10.049892 -0.485785
3.001049 -13.327547 -0.715956
2.651855 -9.568767 1.219181
2.171085 -9.641707 0.806810
3.825513 -11.574059 -0.496629
1.809905 -10.380982 -0.367980
2.564222 -9.252556 2.572661
2.021091 -8.975591 1.677458
1.797430 -6.485719 -0.156607
1.977030 -6.052308 -0.111137
2.476532 -11.180146 -0.333261
1.171181 -4.284055 -1.243282
1.248664 -5.637017 -1.154739
1.881797 -6.883410 0.000000
1.757787 -10.294296 -0.121579
1.805230 -6.603337 -1.065024
1.978901 -8.933621 -1.164698
1.848127 -5.657697 0.034593
2.423904 -10.942564 -0.065140
2.615588 -9.567539 -1.068400
1.765715 -10.340726 -0.979259
2.583606 -9.450556 0.227979
1.963794 -11.500751 0.135828
2.765311 -10.115211 -0.733280
2.183975 -9.859416 -0.824385
1.859792 -5.693405 0.174310
2.131225 -9.621281 0.172011
3.681313 -11.269650 -0.759816
1.869195 -10.946744 -0.646739
2.674708 -9.783793 0.590693
2.299197 -10.379581 0.433125
3.053554 -11.169572 -0.539389
2.520835 -11.380151 -0.610865
2.962887 -10.837921 1.379561
2.124482 -9.590841 0.801928
3.799981 -11.632931 -0.498583
2.595079 -9.492520 2.636849
2.016981 -9.105536 1.700417
1.769507 -6.472667 -0.156142
1.958349 -6.066784 -0.111277
2.872393 -13.185035 -0.392722
1.155218 -4.284399 -1.242203
1.223971 -5.618347 -1.150032
1.854634 -6.878351 0.000000
1.795044 -10.738263 -0.126748
1.782169 -6.609598 -1.065024
1.947705 -8.940475 -1.164698
1.827139 -5.660307 0.034569
2.391654 -10.978315 -0.065303
2.576999 -9.557411 -1.066258
1.723043 -10.307544 -0.975541
2.590164 -9.606236 0.231515
1.691509 -10.118899 0.119438
2.754918 -10.217267 -0.739977
2.113904 -9.703373 -0.810716
1.846048 -5.718886 0.174892
2.072940 -9.515337 0.169986
3.628464 -11.240644 -0.757002
1.831632 -10.957140 -0.646971
2.681084 -9.943438 0.599762
2.142999 -9.836926 0.410167
2.241319 -10.288241 -0.551830
2.401012 -8.904721 1.132410
2.083354 -9.563140 0.798999
2.089620 -6.473449 -0.277135
1.685320 -10.081879 -0.356952
0.928410 -3.443229 0.955560
1.969271 -9.039466 1.686785
2.810869 -10.424773 -0.251242
1.942021 -6.088824 -0.111556
2.151376 -10.043824 -0.298934
1.137286 -4.277237 -1.238968
1.199423 -5.599573 -1.145325
3.819516 -14.364881 0.000000
1.733013 -10.594467 -0.124979
1.768227 -6.650156 -1.070558
1.918147 -8.954980 -1.165708
1.814662 -5.689515 0.034709
2.092769 -9.770211 -0.058073
2.523183 -9.489480 -1.057691
1.686409 -10.309566 -0.975169
2.538119 -9.545655 0.229840
1.585797 -9.694490 0.114362
2.602346 -9.787206 -0.708168
2.061650 -9.624930 -0.803556
1.820000 -5.706249 0.174310
2.036362 -9.506872 0.169707
1.811423 -11.073812 -0.653483
2.561191 -9.632425 0.580460
2.179802 -10.176529 0.424007
2.695202 -10.136430 -0.488577
2.209576 -10.315532 -0.552877
2.530084 -9.515436 1.208944
2.020734 -9.433913 0.787608
2.082799 -6.530204 -0.279252
1.650762 -10.091644 -0.357092
2.454284 -9.230358 2.559203
1.925342 -8.988568 1.676023
2.733359 -10.279936 -0.247520
1.920755 -6.095566 -0.111556
2.830525 -13.443431 -0.399820
1.121372 -4.277454 -1.237890
1.100672 -5.227585 -1.068447
2.678916 -10.218684 0.000000
1.608186 -10.051473 -0.118506
1.750015 -6.675404 -1.073632
1.889329 -8.973269 -1.167223
1.783972 -5.661480 0.034500
2.043817 -9.707003 -0.057654
2.530383 -9.652109 -1.074826
1.678097 -10.488427 -0.991527
2.527093 -9.639558 0.231887
1.750364 -10.940110 0.128983
2.605606 -9.939043 -0.718492
2.152071 -10.221150 -0.852700
1.774835 -5.632485 0.171867
2.027060 -9.627417 0.171732
3.632680 -11.528404 -0.774654
2.527552 -9.641307 0.580460
2.123679 -10.086304 0.419936
3.771346 -14.385742 -0.692755
2.790808 -13.254794 -0.709885
2.013255 -9.561847 0.797697
2.062394 -6.545059 -0.279578
1.615526 -10.097345 -0.357092
7.136814 -27.223269 7.540952
1.826660 -8.675625 1.616472
2.697459 -10.289414 -0.247520
1.898401 -6.102565 -0.111556
1.108576 -4.292725 -1.241125
1.081505 -5.231585 -1.068447
2.634443 -10.201324 0.000000
1.565778 -10.021732 -0.118087
1.725536 -6.681773 -1.073632
1.857231 -8.984019 -1.167729
1.924797 -6.187418 0.037661
2.035758 -9.847610 -0.058445
2.475101 -9.584305 -1.066258
1.757068 -11.246081 -1.062537
2.513743 -9.733937 0.233934
1.584918 -10.144238 0.119531
2.540226 -9.836486 -0.710400
2.254222 -10.904393 -0.909004
1.789809 -5.753488 0.175358
1.973948 -9.548617 0.170196
3.050893 -9.807345 -0.658251
1.689601 -10.814260 -0.637436
2.495193 -9.662106 0.581158
2.067278 -10.000085 0.416028
3.700611 -14.329832 -0.689405
2.156729 -10.432785 -0.558320
2.320963 -8.987439 1.139722
1.971738 -9.537928 0.795094
2.024145 -6.506778 -0.277624
1.575421 -10.083451 -0.356394
2.363052 -9.150419 2.532286
1.813173 -8.770896 1.632974
2.665727 -10.322464 -0.248078
1.892257 -6.154700 -0.112394
2.218114 -10.912129 -0.324069
1.090531 -4.281447 -1.236812
1.064150 -5.235142 -1.068447
2.525563 -9.915411 0.000000
1.529514 -10.007102 -0.117854
1.701418 -6.679799 -1.072403
1.828219 -8.994019 -1.168234
1.939533 -6.308466 0.038359
2.020619 -9.940542 -0.058956
2.452139 -9.627147 -1.070114
1.732401 -11.334524 -1.070344
2.507113 -9.842975 0.236354
1.544018 -10.101993 0.118972
2.520396 -9.895124 -0.714027
2.204549 -10.845392 -0.903471
1.821245 -5.923727 0.180361
1.939882 -9.543353 0.169986
3.017181 -9.813593 -0.657995
1.608480 -10.523749 -0.619995
2.470037 -9.697415 0.582786
2.069134 -10.179216 0.423193
2.653013 -10.415779 -0.500675
2.021863 -9.946658 -0.531943
2.326426 -9.133592 1.157271
1.930568 -9.497532 0.791188
2.008429 -6.532556 -0.278438
2.810342 -18.387133 -0.649549
2.785692 -10.936681 3.024042
1.901657 -9.355300 1.740595
2.622598 -10.296371 -0.247241
1.896396 -6.249617 -0.113999
2.171065 -10.884895 -0.323021
1.075769 -4.289151 -1.237890
1.043421 -5.231314 -1.066878
2.592354 -10.335862 0.000000
1.770629 -11.875916 -0.139786
1.676924 -6.685990 -1.072403
1.800675 -9.027898 -1.171769
1.901299 -6.265774 0.038056
1.959135 -9.822356 -0.058212
2.424577 -9.666928 -1.073541
1.597465 -10.714472 -1.011232
2.635430 -10.507610 0.252079
1.570681 -10.534832 0.124001
2.491878 -9.935259 -0.716259
2.174141 -10.900316 -0.907377
2.089766 -6.886872 0.209452
2.035534 -10.205395 0.181645
4.348923 -14.331978 -0.959875
1.565187 -10.497977 -0.618134
2.632656 -10.496549 0.630227
