2.312220 -8.417407 -0.508368
5.162399 -13.476618 0.840458
2.193596 -6.687590 0.286742
23.776655 -62.069767 -3.096181
2.263371 -6.900311 -0.380587
2.428541 -6.339789 0.833586
2.040273 -6.220155 0.534402
4.875959 -11.076213 -0.493047
2.074360 -7.551500 -0.273472
1.865848 -4.870859 1.397623
1.735453 -5.290853 1.015228
34.839287 -90.949142 -2.266295
5.755641 -13.192964 -0.251245
33.540329 -103.410706 -3.163887
1.140574 -3.007325 -0.900382
2.181830 -6.726964 -1.414398
5.319263 -14.025172 0.000000
28.227503 -104.109863 -1.255794
2.734540 -7.210094 -1.199689
2.393308 -7.378989 -0.987418
5.698841 -13.062767 0.082831
33.576180 -103.521240 -0.632522
2.829086 -7.459382 -0.859347
2.019793 -7.449485 -0.720502
2.623460 -6.917212 0.172147
1.627564 -6.002849 0.072408
2.847010 -7.506642 -0.561400
2.270551 -7.000507 -0.600795
2.005069 -6.181977 0.113441
4.507676 -10.332402 -0.722464
2.031412 -7.492341 -0.452089
4.180241 -11.021940 0.686506
2.162776 -6.668215 0.285602
23.491343 -61.939056 -3.085758
2.257729 -6.960974 -0.383518
2.404688 -6.340383 0.832611
1.959365 -6.041066 0.518454
4.450851 -10.202151 -0.453479
1.851055 -4.880632 1.398658
1.671763 -5.154338 0.987964
34.526146 -91.034264 -2.265551
6.206771 -14.370516 -0.273235
33.156208 -103.517708 -3.163421
1.125486 -3.000665 -0.897147
2.245696 -7.011334 -1.472449
5.021991 -13.389161 0.000000
27.839535 -104.189430 -1.255514
2.734468 -7.290382 -1.211372
2.473969 -7.724031 -1.032369
2.822677 -7.525557 -0.865773
1.969857 -7.372188 -0.712323
2.602302 -6.938015 0.172426
1.626201 -6.086057 0.073339
2.815273 -7.505818 -0.560563
2.236366 -6.982205 -0.598517
6.343016 -14.685962 0.465565
1.953119 -6.097873 0.111765
2.507449 -6.685126 0.415810
1.942044 -6.063297 0.259387
2.882237 -7.684350 -0.382300
2.201740 -6.874098 -0.378284
2.381433 -6.349154 0.832611
1.923834 -6.006443 0.514874
4.400751 -10.189044 -0.452177
2.016430 -7.546487 -0.272774
1.857578 -4.952501 1.417293
1.645658 -5.137945 0.983659
34.154339 -91.059105 -2.263038
6.119741 -14.299098 -0.271490
1.116870 -3.007993 -0.898225
2.222433 -7.018744 -1.472449
5.126541 -13.806975 0.000000
1.630483 -6.184238 -0.074456
2.678634 -7.214189 -1.197229
2.472298 -7.807851 -1.042470
5.752297 -13.440546 0.084970
33.678555 -106.361443 -0.648424
2.785246 -7.501320 -0.861917
1.936261 -7.344020 -0.708977
1.573380 -5.967654 0.071849
2.772311 -7.466484 -0.556936
2.224030 -7.023790 -0.601446
4.691212 -10.961265 0.346992
1.922021 -6.070002 0.111137
3.351704 -7.831432 -0.545942
1.989237 -7.544952 -0.454415
2.486656 -6.697147 0.416043
1.958121 -6.184011 0.264272
2.160844 -6.824239 -0.375144
3.204735 -8.631101 1.130460
4.355930 -10.177861 -0.451037
1.997508 -7.576324 -0.273612
1.866697 -5.027453 1.436963
1.630987 -5.150877 0.985094
6.005801 -14.169398 -0.268627
2.236918 -7.151130 -0.218063
1.105035 -3.008257 -0.897147
2.531648 -8.093342 -1.696023
5.096246 -13.873597 0.000000
2.694321 -7.334796 -1.215677
2.428444 -7.763415 -1.035400
5.800566 -13.685191 0.086388
2.794699 -7.608057 -0.873055
2.695660 -7.338441 0.181918
1.534429 -5.903430 0.071011
2.744856 -7.472369 -0.556657
2.293526 -7.332099 -0.627157
4.556182 -10.749332 0.339777
1.917537 -6.130111 0.112114
3.319674 -7.832058 -0.545174
1.956861 -7.528661 -0.453019
2.460510 -6.698289 0.415578
2.798177 -7.617525 -0.378019
2.128663 -6.805054 -0.373679
3.167743 -8.623602 1.128023
1.910280 -6.106912 0.522360
4.326616 -10.207722 -0.451688
1.978090 -7.610335 -0.274589
1.854466 -5.048445 1.441105
1.612997 -5.156539 0.985094
5.292043 -14.406619 -0.357136
3.304757 -7.873243 -0.149044
2.210761 -7.155076 -0.217946
1.098474 -3.022957 -0.900382
2.064536 -6.681821 -1.398709
4.005441 -11.022815 0.000000
1.546570 -6.036612 -0.072547
2.945424 -8.105691 -1.341733
2.400157 -7.768054 -1.034894
5.695479 -13.568893 0.085528
2.198671 -7.115946 -0.043287
2.772198 -7.628981 -0.874340
1.867151 -7.287913 -0.702285
2.530721 -6.964444 0.172426
1.545577 -6.032737 0.072501
2.636988 -7.256886 -0.539915
2.213779 -7.164844 -0.612186
5.134526 -12.232481 0.386090
1.885500 -6.102377 0.111486
5.900209 -14.056642 -0.977015
1.932550 -7.543182 -0.453484
2.430294 -6.688073 0.414415
5.117372 -14.082805 -0.697967
2.168572 -7.018534 -0.384983
2.279317 -6.272591 0.819450
1.866589 -6.041172 0.516176
25.729794 -100.429222 -3.620334
1.896212 -5.218300 1.487692
1.594987 -5.162138 0.985094
3.275720 -7.881038 -0.148974
2.067906 -6.776503 -0.206194
2.037766 -6.677732 -1.396355
3.961529 -11.021672 0.000000
1.514719 -5.999315 -0.072035
2.954546 -8.220068 -1.358951
2.259531 -7.404453 -0.985397
6.019605 -14.482539 0.091154
2.201838 -7.215395 -0.043845
2.511488 -6.987401 -0.799801
1.904098 -7.541523 -0.726079
2.480696 -6.901734 0.170658
1.531364 -6.065242 0.072827
2.622439 -7.296087 -0.542147
2.324899 -7.618666 -0.650265
4.484096 -10.788263 0.340010
1.815161 -5.948261 0.108554
5.844979 -14.062407 -0.975992
1.903276 -7.538267 -0.452787
2.396129 -6.666452 0.412555
2.154556 -7.060453 0.300745
5.066832 -14.096820 -0.697781
2.107918 -6.907622 -0.378494
2.308439 -6.422483 0.837974
1.872254 -6.135352 0.523662
3.262765 -7.849871 -0.346338
1.586315 -6.282886 -0.226288
1.743377 -4.850383 1.381059
1.578107 -5.171438 0.985811
5.214331 -14.507189 -0.358718
3.241953 -7.873367 -0.148625
2.038497 -6.760355 -0.205496
2.541713 -7.145852 -2.123176
2.026933 -6.722006 -1.404200
4.996010 -14.045938 0.000000
1.492883 -5.996543 -0.071942
2.551097 -7.172233 -1.184316
2.236109 -7.415705 -0.985902
3.256099 -7.907721 0.049703
1.883432 -6.246105 -0.037917
2.465645 -6.931993 -0.792518
1.873306 -7.524608 -0.723848
2.397489 -6.740376 0.166471
1.540230 -6.186725 0.074224
2.488577 -6.996462 -0.519267
4.468086 -10.851137 0.341523
1.794271 -5.950418 0.108484
4.653850 -11.302280 -0.783352
1.877303 -7.540662 -0.452554
2.349921 -6.606639 0.408368
2.119592 -7.029294 0.299117
5.021397 -14.117311 -0.697967
2.259187 -6.351550 0.827737
24.540913 -59.599751 -2.625946
1.737641 -4.885259 1.389341
1.560949 -5.176643 0.985811
5.151453 -14.482955 -0.357694
5.735885 -14.069389 -0.265207
2.012605 -6.759766 -0.205263
2.532093 -7.198285 -2.136115
1.994503 -6.698967 -1.397924
5.104903 -14.512321 0.000000
1.472895 -6.005602 -0.071988
2.520800 -7.166180 -1.181857
2.213607 -7.434874 -0.987418
2.758853 -6.767111 0.042473
1.865042 -6.264143 -0.037987
2.587920 -7.356990 -0.840069
1.850824 -7.546573 -0.725336
2.368639 -6.733615 0.166099
1.549112 -6.316370 0.075714
2.484002 -7.061570 -0.523453
2.252510 -7.565537 -0.644407
5.135087 -12.595707 0.395864
1.772349 -5.952813 0.108414
4.617384 -11.325850 -0.783864
1.830045 -7.461847 -0.447438
2.287093 -6.501793 0.401392
1.845280 -6.197768 0.263458
2.966016 -8.431850 -0.416360
2.253486 -7.568816 -0.413873
2.267304 -6.445538 0.838949
1.833862 -6.159417 0.524638
5.608281 -13.756392 -0.605236
1.730835 -4.920454 1.397623
32.111317 -91.286697 -2.251779
3.191398 -7.906935 -0.148834
30.477640 -103.687782 -3.145268
2.539853 -7.301671 -2.164151
1.998759 -6.799966 -1.417536
5.080495 -14.605612 0.000000
2.436036 -7.003215 -1.153571
2.164141 -7.362610 -0.976811
2.732219 -6.769282 0.042427
1.821731 -6.197700 -0.037545
2.430257 -6.986599 -0.796802
1.819793 -7.533631 -0.723477
2.343805 -6.738065 0.166006
1.450044 -6.002931 0.071895
2.659911 -7.646818 -0.566144
2.226086 -7.573354 -0.644407
5.132988 -12.717372 0.399122
4.570349 -11.323392 -0.782585
1.791796 -7.417728 -0.444415
2.257823 -6.490880 0.400229
1.697399 -5.774711 0.245221
2.926063 -8.411963 -0.414872
2.193257 -7.461665 -0.407592
3.880448 -11.155667 1.450245
1.886552 -6.418226 0.546118
20.249258 -83.828445 -3.011548
1.712379 -4.922817 1.396588
2.162867 -7.358275 1.398360
31.967190 -91.900566 -2.264155
3.163677 -7.913760 -0.148764
30.136990 -103.799797 -3.145618
1.954327 -6.731221 -1.401847
5.046352 -14.663984 0.000000
1.350472 -5.673080 -0.067891
2.406369 -6.992568 -1.150496
2.123119 -7.312587 -0.969235
2.782512 -6.960298 0.043566
1.797824 -6.192183 -0.037475
2.387663 -6.938211 -0.790376
1.792035 -7.528001 -0.722361
2.283712 -6.636144 0.163307
1.366219 -5.739227 0.068682
2.633240 -7.651824 -0.565865
2.198738 -7.573037 -0.643756
5.329744 -13.332057 0.417856
1.787544 -6.156777 0.111905
2.999130 -7.502155 -0.517800
2.315550 -6.728661 0.414415
1.760704 -6.064333 0.257270
4.867959 -14.145600 -0.696850
2.177412 -7.499585 -0.409267
2.090312 -6.074149 0.788738
5.738536 -14.354629 -0.629823
1.702332 -4.946734 1.401764
1.611796 -5.551454 1.053971
5.643682 -14.261583 -0.267720
29.754648 -103.835182 -3.143523
1.979440 -6.907678 -1.437148
4.965501 -14.594412 0.000000
1.310583 -5.592087 -0.066866
2.370488 -6.967248 -1.144962
2.136930 -7.457274 -0.987418
2.714044 -6.858389 0.042869
1.759670 -6.140744 -0.037127
2.344215 -6.890028 -0.783950
1.727578 -7.371350 -0.706747
2.026108 -5.955059 0.146372
1.312408 -5.599875 0.066960
2.424007 -7.124549 -0.526243
2.168995 -7.569168 -0.642779
5.509742 -13.923119 0.435776
2.996425 -7.571966 -0.521894
1.759489 -7.507511 -0.449066
2.223879 -6.536340 0.402090
1.691082 -5.901392 0.250106
4.800534 -14.109548 -0.694244
2.175428 -7.591619 -0.413873
2.099787 -6.171614 0.800438
29.868427 -104.232231 8.851479
5.725159 -14.467477 -0.633894
1.387407 -5.919888 -0.212329
1.683809 -4.948988 1.400729
1.582652 -5.523000 1.047514
2.855614 -8.393112 -0.206298
5.668255 -14.471118 -0.271280
29.378960 -103.892250 -3.142127
0.895188 -2.661535 -0.786082
1.921162 -6.793768 -1.412045
1.285660 -5.573244 -0.066587
2.336073 -6.945511 -1.140043
2.094691 -7.407414 -0.979841
2.665287 -6.804507 0.042473
1.743666 -6.166094 -0.037243
2.285918 -6.796392 -0.772384
1.701836 -7.377336 -0.706747
2.016782 -5.996208 0.147209
1.277569 -5.538167 0.066168
2.508521 -7.458225 -0.550239
2.144730 -7.584366 -0.643430
1.729283 -6.115229 0.110927
2.959784 -7.556361 -0.520103
1.702753 -7.381311 -0.441159
2.192138 -6.517570 0.400462
1.740075 -6.153395 0.260527
2.381996 -7.082045 -0.348053
2.063046 -7.295508 -0.397335
2.023808 -6.017096 0.779476
29.449080 -104.140221 8.834881
5.646928 -14.416669 -0.630800
1.293051 -5.605283 -0.200881
1.994163 -5.928958 1.676112
1.556938 -5.505772 1.043209
5.729839 -14.764761 -0.276446
29.040598 -103.941666 -3.140847
0.849111 -2.551036 -0.752654
1.945194 -6.962208 -1.445777
32.507442 -97.664040 0.000000
1.268145 -5.577255 -0.066587
2.331717 -7.005318 -1.148651
2.078884 -7.440710 -0.983377
2.664157 -6.865052 0.042799
1.727516 -6.183098 -0.037312
2.283396 -6.860142 -0.778810
1.280402 -5.631160 -0.539076
1.973939 -5.930423 0.145441
1.262824 -5.553854 0.066308
2.306133 -6.928451 -0.510617
2.091928 -7.487395 -0.634643
2.687666 -6.925629 0.216201
2.910036 -7.498638 -0.515498
1.284679 -5.649969 -0.337439
2.175436 -6.535790 0.401159
1.861621 -6.663085 0.281857
4.744709 -14.254810 -0.699828
2.077737 -7.436604 -0.404662
2.197986 -6.603541 0.854548
29.145378 -104.316689 8.842041
5.633421 -14.516309 -0.634382
1.268345 -5.578134 -0.199765
1.976747 -5.938859 1.677148
1.522692 -5.449996 1.031730
34.358921 -103.226547 -2.531588
5.647019 -14.710987 -0.275050
28.638201 -103.970322 -3.138520
0.964877 -2.934690 -0.864798
1.936328 -7.029795 -1.458328
35.744865 -108.718613 0.000000
1.245950 -5.574059 -0.066494
2.367750 -7.201553 -1.179397
4.142664 -10.792008 0.067186
2.270658 -6.906245 -0.783094
1.254542 -5.612495 -0.536845
1.949692 -5.930021 0.145255
1.238970 -5.542832 0.066121
2.039062 -7.402765 -0.626832
2.660831 -6.931701 0.216084
1.691866 -6.142281 0.111207
2.886824 -7.520433 -0.516265
1.246540 -5.576699 -0.332788
2.237640 -6.805821 -0.333721
2.002732 -7.270871 -0.395241
1.967924 -5.985474 0.773627
30.081982 -109.211929 9.247561
5.322367 -13.865237 -0.605073
1.245275 -5.571041 -0.199346
1.983929 -6.034154 1.701994
1.469266 -5.334136 1.008770
33.979095 -103.347992 -2.531495
5.625458 -14.809123 -0.276516
28.265665 -104.034927 -3.137472
1.880926 -6.922958 -1.434794
33.604984 -103.425507 0.000000
1.225626 -5.574468 -0.066447
2.424430 -7.461628 -1.220596
4.099286 -10.791446 0.067093
1.692665 -6.230042 -0.037522
2.229331 -6.861177 -0.777096
1.225535 -5.574053 -0.532755
1.930216 -5.940593 0.145348
1.218755 -5.543216 0.066075
2.021571 -7.440617 -0.629436
2.623840 -6.907307 0.215037
1.634763 -6.016927 0.108833
2.870477 -7.556586 -0.518056
1.226208 -5.577116 -0.332555
2.060742 -6.342312 0.388369
1.819133 -6.695521 0.282671
2.223747 -6.843991 -0.335210
2.033895 -7.485976 -0.406546
1.940884 -5.973426 0.771189
29.700577 -109.316277 9.247561
5.310835 -13.980873 -0.609307
1.222387 -5.559736 -0.198788
2.841601 -8.745548 2.463957
1.450638 -5.339233 1.008770
33.588474 -103.374695 -2.529262
5.327138 -14.165110 -0.264160
27.904989 -104.070152 -3.135727
0.808213 -2.515780 -0.739715
1.861006 -6.940523 -1.437148
33.330349 -103.749626 0.000000
1.207134 -5.578501 -0.066447
2.269112 -7.063218 -1.154186
2.071761 -7.726521 -1.018227
4.104311 -10.913554 0.067767
1.641954 -6.123580 -0.036848
2.346454 -7.303967 -0.826361
1.203675 -5.562515 -0.531268
1.926407 -5.996456 0.146558
1.201213 -5.551136 0.066121
2.340854 -7.286535 -0.535172
1.994821 -7.439577 -0.628785
4.144866 -11.021392 0.342687
1.609622 -6.003000 0.108484
1.203485 -5.561636 -0.331392
2.053134 -6.390930 0.390927
2.201040 -6.851326 -0.335210
1.985265 -7.403939 -0.401731
1.997568 -6.217964 0.801900
27.921301 -104.130981 8.801033
5.195509 -13.815103 -0.601328
0.785439 -3.629728 -0.129687
2.787768 -8.677674 2.442217
1.431905 -5.340213 1.008053
33.274849 -103.576874 -2.531495
0.884378 -3.347235 -1.614402
5.303066 -14.259510 -0.265556
27.512133 -104.129211 -3.134447
0.818787 -2.581143 -0.758046
1.845575 -6.985219 -1.444992
33.033314 -104.134178 0.000000
1.186680 -5.582888 -0.066447
2.247989 -7.086557 -1.156645
1.998829 -7.565263 -0.996004
4.021060 -10.812302 0.067046
1.594977 -6.036744 -0.036290
2.492831 -7.858398 -0.888049
1.180795 -5.555203 -0.530153
1.891115 -5.961547 0.145534
1.183354 -5.567239 0.066261
2.345501 -7.393956 -0.542426
1.973651 -7.469965 -0.630737
2.709350 -7.285220 0.226208
1.573307 -5.954726 0.107507
2.800956 -7.531543 -0.514986
1.182262 -5.562104 -0.331160
2.015207 -6.352737 0.388136
1.763157 -6.673281 0.281206
2.157791 -6.802218 -0.332418
1.858319 -5.858163 0.754615
27.630091 -104.575668 8.829998
5.169916 -13.901482 -0.604259
1.182713 -5.564225 -0.198648
1.878575 -5.922016 1.664724
1.413328 -5.349230 1.008770
0.873602 -3.353810 -1.616092
5.268449 -14.319222 -0.266324
1.985466 -7.622322 -0.229233
1.824146 -7.003006 -1.447346
2.381561 -7.599570 0.000000
1.168821 -5.594827 -0.066540
2.352070 -7.505465 -1.223670
1.982411 -7.610593 -1.001055
4.009536 -10.897597 0.067488
1.567845 -6.019050 -0.036150
2.360728 -7.533092 -0.850351
1.159768 -5.551493 -0.529409
1.875077 -5.983376 0.145906
1.163913 -5.571336 0.066261
2.186033 -6.975640 -0.511175
1.945553 -7.469094 -0.630087
2.620395 -7.122024 0.220855
1.542430 -5.921478 0.106809
2.492084 -6.773286 -0.462541
1.162839 -5.566197 -0.331160
1.924954 -6.142534 0.374880
2.144788 -6.844025 -0.334093
1.927198 -7.398628 -0.400684
1.835484 -5.857037 0.753640
5.353207 -14.549588 -0.631614
1.171458 -5.607450 -0.200044
1.847493 -5.895356 1.655407
0.973079 -3.735706 0.703843
2.121419 -6.769457 -0.165075
5.177397 -14.224779 -0.264229
1.593925 -6.207927 -0.186529
0.881619 -2.848052 -0.834605
1.798715 -7.005531 -1.446561
1.148479 -5.594954 -0.066494
2.346895 -7.581592 -1.234739
1.991358 -7.755826 -1.019237
3.959158 -10.877698 0.067279
1.546825 -6.024486 -0.036150
2.355587 -7.609670 -0.858062
1.141183 -5.559410 -0.529781
1.847084 -5.966964 0.145348
1.145262 -5.579282 0.066308
2.143971 -6.926050 -0.506990
2.471076 -6.789224 0.210266
1.534681 -5.977185 0.107716
2.462965 -6.766939 -0.461518
1.143403 -5.570222 -0.331160
1.909405 -6.168289 0.376043
1.561472 -6.081532 0.255805
2.125611 -6.866738 -0.334838
1.947057 -7.583285 -0.410314
1.811506 -5.852030 0.752178
0.862572 -3.359494 0.283148
5.306487 -14.579453 -0.632103
1.148661 -5.595841 -0.199486
1.613250 -5.211568 1.461810
1.446410 -5.633395 1.060429
2.179370 -7.040406 -0.171496
5.215403 -14.470485 -0.268488
0.897472 -2.931838 -0.858328
1.782479 -7.033960 -1.451268
1.986477 -7.838972 -1.029339
5.080485 -14.096148 0.087086
1.529857 -6.037070 -0.036197
2.331669 -7.617033 -0.858062
1.124501 -5.566871 -0.530153
1.817795 -5.938324 0.144511
1.135649 -5.622058 0.066773
2.288054 -7.474553 -0.546612
1.873450 -7.392947 -0.622601
2.437534 -6.763100 0.209219
1.497229 -5.908317 0.106390
3.014220 -8.363153 -0.569734
1.128270 -5.585530 -0.331858
1.890017 -6.174258 0.376043
21.090363 -83.226097 3.497895
2.102858 -6.869561 -0.334652
1.951680 -7.701656 -0.416385
1.782654 -5.823526 0.747790
1.399456 -5.522489 0.465079
5.066874 -14.058380 -0.608818
1.133451 -5.611177 -0.199904
1.590084 -5.194443 1.455598
1.610435 -6.355047 1.195314
2.084670 -6.810144 -0.165727
5.120542 -14.364286 -0.266184
1.499442 -6.005006 -0.180129
0.893920 -2.957076 -0.864798
1.757914 -7.040139 -1.451268
1.886666 -6.241066 0.000000
0.738563 -3.723196 -0.044190
2.094124 -6.927335 -1.125900
1.968714 -7.884356 -1.034389
5.055424 -14.181615 0.087504
1.598893 -6.403286 -0.038359
2.363757 -7.819276 -0.879909
1.105836 -5.574669 -0.530525
1.824826 -6.036501 0.146744
1.115238 -5.622065 0.066727
2.274649 -7.524509 -0.549681
2.592470 -7.272469 0.224695
1.495973 -5.991112 0.107786
2.420711 -6.790646 -0.462029
1.107988 -5.585518 -0.331625
1.873075 -6.196107 0.376973
1.876397 -7.514646 -0.405918
1.776101 -5.875317 0.753640
1.367614 -5.477057 0.460848
5.072791 -14.230333 -0.615494
1.110745 -5.599416 -0.199346
1.560761 -5.162978 1.445246
1.581568 -6.333904 1.190292
5.050264 -14.317070 -0.264997
1.463273 -5.943944 -0.178150
1.738309 -7.061165 -1.454406
1.859091 -6.224291 0.000000
1.101946 -5.653213 -0.067053
2.064355 -6.911519 -1.122210
1.899875 -7.717458 -1.011661
5.078890 -14.398224 0.088736
1.581475 -6.424089 -0.038452
2.350335 -7.868989 -0.884622
1.087344 -5.578305 -0.530525
1.781910 -5.965887 0.144883
1.095058 -5.617880 0.066634
2.240549 -7.501424 -0.547449
1.861204 -7.560374 -0.635619
2.392772 -6.783307 0.209335
1.475142 -5.992157 0.107716
2.407475 -6.824987 -0.463820
1.088696 -5.585241 -0.331392
1.849090 -6.190805 0.376276
2.301907 -7.706852 -0.374669
1.738428 -5.820309 0.745840
0.833873 -3.387264 0.284776
4.984359 -14.130236 -0.610446
1.095995 -5.622686 -0.200044
1.544738 -5.171828 1.446281
1.291527 -5.246295 0.985094
31.000885 -103.791862 -2.520608
5.006844 -14.353492 -0.265346
1.435921 -5.921816 -0.177336
0.868324 -2.944619 -0.859406
1.742304 -7.185357 -1.478724
1.841878 -6.246089 0.000000
1.085212 -5.672740 -0.067239
1.866379 -7.697049 -1.008126
2.438548 -6.990768 0.043031
1.549615 -6.390697 -0.038219
2.210366 -7.495685 -0.841783
1.070111 -5.593802 -0.531640
0.718464 -3.755636 0.044516
2.183878 -7.405861 -0.539915
1.840439 -7.590071 -0.637572
2.353277 -6.746314 0.207939
1.444792 -5.958402 0.107018
2.507223 -7.187642 -0.487868
1.072195 -5.604695 -0.332323
1.857964 -6.300637 0.382555
1.346807 -5.554304 0.232846
2.224134 -7.542377 -0.366293
1.803554 -7.437957 -0.401103
1.725961 -5.852998 0.749253
0.823923 -3.397903 0.285427
5.110080 -14.649447 -0.632103
1.082371 -5.657888 -0.201161
1.526675 -5.177188 1.446281
1.270424 -5.239299 0.982941
30.588621 -103.730667 -2.516513
0.805781 -3.374475 -1.617783
2.895001 -8.393411 -0.154977
1.410598 -5.907348 -0.176754
0.856964 -2.943933 -0.858328
1.677129 -7.023532 -1.444208
1.822301 -6.260162 0.000000
2.297749 -7.893471 -1.279012
1.861619 -7.796144 -1.020247
5.042158 -14.618613 0.089875
1.337779 -5.602395 -0.033477
2.144172 -7.365889 -0.826361
1.054252 -5.617075 -0.533499
1.058764 -5.641113 0.066820
2.190356 -7.524545 -0.548007
1.783378 -7.468485 -0.626832
2.327107 -6.746928 0.207706
1.332025 -5.578296 0.100107
2.459992 -7.132198 -0.483519
1.057044 -5.631953 -0.333718
1.859397 -6.387600 0.387438
1.319056 -5.523986 0.231380
2.204494 -7.573113 -0.367410
1.774797 -7.432551 -0.400475
1.722165 -5.916166 0.756565
0.812057 -3.400759 0.285427
5.032851 -14.591631 -0.628846
1.513994 -5.201034 1.451457
0.864608 -3.620833 0.678732
30.208475 -103.775375 -2.515025
0.795656 -3.384325 -1.621164
1.383564 -5.884990 -0.175940
0.847746 -2.950609 -0.859406
1.640932 -6.979707 -1.434010
1.782764 -6.204973 0.000000
0.721191 -3.917907 -0.046378
2.255993 -7.852060 -1.271019
1.815323 -7.721479 -1.009641
4.993680 -14.643698 0.089922
1.313638 -5.587562 -0.033360
2.132724 -7.423019 -0.831930
1.037522 -5.636389 -0.534986
1.704983 -5.934254 0.143673
1.045583 -5.680178 0.067239
2.172892 -7.562826 -0.550239
1.761859 -7.494070 -0.628459
2.046732 -6.001931 0.184550
1.304307 -5.547873 0.099479
2.419620 -7.095404 -0.480449
1.046053 -5.682735 -0.336509
1.296107 -5.512994 0.230729
2.160392 -7.519317 -0.364432
1.735129 -7.380374 -0.397335
1.712467 -5.960299 0.761440
1.287407 -5.475987 0.459221
4.823218 -14.143826 -0.608818
1.076135 -5.846157 -0.207582
1.451019 -5.050322 1.407976
0.815940 -3.470602 0.650033
29.832792 -103.834068 -2.513908
0.785473 -3.394146 -1.624545
32.382748 -96.056969 -1.769395
1.295403 -5.597632 -0.167212
0.839543 -2.960962 -0.861563
1.540506 -6.656758 -1.366545
1.754547 -6.188068 0.000000
1.057715 -5.860919 -0.069334
2.218866 -7.825664 -1.265484
1.734681 -7.495821 -0.979336
2.462322 -7.303987 0.044798
1.286009 -5.557041 -0.033151
2.165382 -7.637032 -0.855063
1.021378 -5.659573 -0.536845
1.749709 -6.171005 0.149256
1.024328 -5.675920 0.067146
1.732992 -7.488522 -0.627483
2.027046 -6.012827 0.184667
1.281327 -5.536807 0.099199
2.391011 -7.092459 -0.479682
1.037558 -5.749228 -0.340230
29.472937 -103.947365 6.292270
1.276855 -5.517485 0.230729
2.072003 -7.307697 -0.353823
1.684070 -5.939504 0.758027
1.271880 -5.495985 0.460523
4.807013 -14.259046 -0.613052
1.049332 -5.814471 -0.206326
1.421788 -5.014468 1.396588
0.804707 -3.477263 0.650750
29.454887 -103.883713 -2.512605
34.489147 -103.437004 -1.903220
0.826343 -3.625445 -0.108217
0.831796 -2.971148 -0.863720
1.514936 -6.646533 -1.363407
1.748036 -6.243927 0.000000
1.037576 -5.860455 -0.069288
1.965941 -7.022276 -1.134508
1.723924 -7.563431 -0.987418
2.425436 -7.274167 0.044566
1.269353 -5.569075 -0.033198
2.107880 -7.529277 -0.842211
1.005382 -5.678615 -0.538332
1.723845 -6.157519 0.148791
0.661734 -3.737616 0.044190
1.286429 -5.643992 -0.472565
2.234744 -6.702259 0.205612
1.263848 -5.544924 0.099269
2.344751 -7.032185 -0.475077
1.017791 -5.748704 -0.339997
29.115160 -103.998375 6.289480
1.259440 -5.525585 0.230892
2.052068 -7.329918 -0.354567
1.283613 -5.631639 -0.302711
1.609778 -5.750073 0.733166
1.263393 -5.542930 0.464103
2.525866 -7.575370 -0.325333
1.032833 -5.833664 -0.206884
1.313488 -4.691737 1.305483
1.264528 -5.547908 1.037470
29.097305 -103.934608 -2.511489
34.055256 -103.336472 -1.899171
1.250271 -5.575109 -0.166281
0.825521 -2.988886 -0.868033
1.476276 -6.582890 -1.349287
0.676024 -3.897539 -0.046052
1.941416 -7.029097 -1.134508
1.666252 -7.430018 -0.969235
1.248154 -5.565666 -0.033151
2.011704 -7.283582 -0.813938
0.994401 -5.733104 -0.543165
1.689565 -6.117245 0.147674
1.017796 -5.867983 0.069334
2.070466 -7.496336 -0.543821
1.255377 -5.597878 -0.468334
1.966047 -5.965727 0.182805
1.247110 -5.561010 0.099479
2.445132 -7.419452 -0.500660
0.999082 -5.760092 -0.340462
28.733871 -104.033951 6.285526
1.239269 -5.526048 0.230729
2.019022 -7.310078 -0.353264
1.252583 -5.585416 -0.299990
1.590753 -5.759485 0.733654
1.257122 -5.605658 0.468985
1.009047 -5.817541 -0.206186
1.350591 -4.889956 1.359318
1.253765 -5.590686 1.044644
28.720474 -103.985443 -2.510279
33.680725 -103.412888 -1.898403
1.228220 -5.567726 -0.165932
0.820146 -3.010331 -0.873424
1.405128 -6.369679 -1.304572
1.699146 -6.236682 0.000000
0.996637 -5.867557 -0.069288
1.921024 -7.051085 -1.136968
1.240274 -5.622371 -0.732861
33.674137 -103.392662 0.631988
1.229580 -5.573895 -0.033174
1.976859 -7.256024 -0.810082
1.667151 -6.119246 0.147581
0.999316 -5.883330 0.069474
2.031700 -7.457318 -0.540473
1.230677 -5.578866 -0.466381
1.943973 -5.968751 0.182689
1.226829 -5.561423 0.099409
2.467430 -7.575969 -0.510637
0.981645 -5.779292 -0.341392
28.356915 -104.083527 6.282503
1.227721 -5.565466 0.232194
2.052311 -7.532969 -0.363687
1.228777 -5.570251 -0.298943
1.569596 -5.761171 0.733166
0.763484 -3.460999 0.289332
2.204338 -6.768174 -0.289999
0.988734 -5.821028 -0.206186
1.321327 -4.849906 1.346894
1.183381 -5.364464 1.001596
28.347870 -104.050323 -2.509441
33.323792 -103.419205 -1.896588
1.209873 -5.567649 -0.165816
0.807683 -3.001734 -0.870189
1.223528 -5.630486 -1.152385
1.636932 -6.083622 0.000000
0.634383 -3.807248 -0.044935
1.996426 -7.419672 -1.195385
1.214179 -5.587465 -0.727810
33.519676 -104.027130 0.635219
1.211215 -5.573822 -0.033151
2.051189 -7.623198 -0.850351
5.247854 -31.494968 -2.980531
1.651036 -6.136038 0.147861
0.978857 -5.874604 0.069334
2.010337 -7.471371 -0.541031
1.208912 -5.563226 -0.464754
1.900688 -5.898716 0.180361
1.216995 -5.600424 0.100037
2.301604 -7.142948 -0.480961
0.965453 -5.794163 -0.342090
1.711981 -6.362538 0.383718
1.216172 -5.596634 0.233334
2.004757 -7.450635 -0.359406
1.212120 -5.577987 -0.299152
1.457616 -5.417196 0.688806
0.750067 -3.451694 0.288356
2.195323 -6.813106 -0.291627
0.971099 -5.828047 -0.206326
1.610269 -5.984527 1.660583
1.164016 -5.356619 0.999443
28.000076 -104.061646 -2.507581
1.189595 -5.567929 -0.165700
0.799175 -3.011981 -0.872346
1.192392 -5.581022 -1.141403
1.614660 -6.085433 0.000000
0.960918 -5.893775 -0.069521
2.164118 -8.156265 -1.312832
1.193009 -5.583908 -0.726800
2.422048 -7.607615 0.046402
1.192586 -5.581927 -0.033174
2.006207 -7.561120 -0.842640
5.351931 -32.825981 -3.104704
1.590635 -5.994887 0.144325
0.960274 -5.889828 0.069474
1.999593 -7.536195 -0.545217
1.187819 -5.559616 -0.464103
1.901918 -5.973894 0.182456
1.192424 -5.581171 0.099618
2.250014 -7.067257 -0.475332
1.332691 -8.174040 -0.482321
1.195793 -5.596937 0.233171
1.966440 -7.411244 -0.357173
1.188468 -5.562652 -0.298106
1.430551 -5.391552 0.684906
1.206977 -5.649286 0.471589
2.227299 -6.995912 -0.299117
0.953322 -5.847185 -0.206884
1.607204 -6.057333 1.679218
1.147776 -5.372195 1.001596
27.627417 -104.123962 -2.506743
2.281089 -7.256767 -0.132778
1.170822 -5.580078 -0.165932
0.790078 -3.022343 -0.874503
1.167902 -5.566161 -1.137480
1.586275 -6.068090 0.000000
5.495964 -21.024099 -3.380774
1.170091 -5.576593 -0.725285
1.168833 -5.570602 -0.033081
1.962387 -7.506858 -0.835785
1.564607 -5.985201 0.143952
0.939939 -5.901207 0.069567
1.958839 -7.493286 -0.541589
1.164978 -5.552226 -0.463127
1.886005 -5.999896 0.183038
1.169496 -5.573761 0.099409
2.354573 -7.490540 -0.503218
1.679536 -6.424850 0.386741
1.176912 -5.609104 0.233497
1.995854 -7.634883 -0.367596
1.169712 -5.574789 -0.298524
1.408772 -5.389077 0.683931
2.160894 -6.874394 -0.293581
1.204784 -7.563984 -0.267470
1.064153 -4.070780 1.127416
0.779796 -3.716470 0.692364
27.191994 -104.019470 -2.501811
2.251001 -7.249407 -0.132499
1.150530 -5.580214 -0.165816
1.146881 -5.562521 -1.135911
1.561092 -6.058096 0.000000
1.169783 -7.512962 -0.088519
1.150618 -5.580643 -0.725285
2.374665 -7.647670 0.046542
1.150190 -5.578565 -0.033105
1.969913 -7.644603 -0.850351
1.203400 -7.728869 -0.730169
1.533727 -5.951902 0.143022
1.865959 -7.241188 -0.522895
1.147200 -5.564067 -0.463778
1.869793 -6.021716 0.183503
1.152457 -5.589561 0.099618
2.174527 -7.003119 -0.469960
12.245262 -78.645546 -4.635308
1.636174 -6.349468 0.381857
1.159747 -5.624922 0.233985
1.941275 -7.533464 -0.362384
1.148633 -5.571013 -0.298106
1.391934 -5.401650 0.684906
0.714887 -3.467293 0.289007
2.116738 -6.817008 -0.290813
1.183295 -7.599743 -0.268587
1.059578 -4.111884 1.137769
1.122814 -5.445789 1.013793
2.177603 -7.100452 -0.129636
1.134219 -5.599871 -0.166281
1.124343 -5.551113 -1.132774
1.547812 -6.094524 0.000000
1.151972 -7.572358 -0.089171
1.851447 -7.290088 -1.170173
1.128768 -5.572958 -0.723769
2.337400 -7.621496 0.046333
1.133886 -5.598227 -0.033198
2.000975 -7.878855 -0.875626
1.139276 -7.488904 -0.707119
1.513926 -5.961095 0.143115
1.830849 -7.208982 -0.520104
1.126979 -5.564130 -0.463452
1.840555 -6.001448 0.182689
1.139290 -5.624907 0.100177
2.130170 -6.945788 -0.465611
0.769591 -3.799629 0.157944
1.950373 -7.679612 -0.369085
1.130765 -5.582819 -0.298524
1.373070 -5.406476 0.684906
0.703571 -3.473674 0.289332
2.278081 -7.428077 -0.316540
1.157360 -7.607779 -0.268726
0.937749 -3.692393 1.020782
1.082706 -5.345541 0.994421
1.534597 -6.042488 -0.145069
0.737641 -3.701621 -0.109846
0.694830 -2.772378 -0.800100
1.106898 -5.554618 -1.132774
1.593810 -6.359317 0.000000
1.121107 -7.528467 -0.088612
1.830456 -7.303537 -1.171403
1.112805 -5.584260 -0.724780
2.307641 -7.609663 0.046216
1.119419 -5.617453 -0.033291
1.941406 -7.746227 -0.860204
1.193763 -8.016367 -0.756565
1.493246 -5.958064 0.142929
11.762495 -78.987587 0.929704
1.791700 -7.148900 -0.515361
1.110273 -5.571553 -0.463778
1.814730 -5.984244 0.181990
1.121613 -5.628459 0.100177
2.242717 -7.395570 -0.495287
1.906810 -7.608187 -0.365362
1.114001 -5.590261 -0.298734
1.355113 -5.406912 0.684418
1.265321 -6.349616 0.528544
11.752592 -78.921089 -2.786376
1.103670 -4.403654 1.216450
1.068983 -5.364354 0.997291
1.496162 -5.969701 -0.143208
31.039402 -103.722755 -1.889816
0.712564 -3.645439 -0.108100
0.690200 -2.797344 -0.806570
1.085027 -5.550939 -1.131205
1.568575 -6.357348 0.000000
1.810303 -7.337058 -1.175707
1.090807 -5.580513 -0.723769
2.286615 -7.641062 0.046356
1.107263 -5.664701 -0.033546
1.151786 -7.933978 -0.748386
1.488642 -6.033381 0.144604
11.470036 -79.010368 0.929471
1.776957 -7.201907 -0.518709
1.092139 -5.587324 -0.464754
1.793931 -5.994685 0.182107
1.100976 -5.632533 0.100177
2.211018 -7.388443 -0.494264
1.177784 -8.113065 -0.477438
0.742176 -3.796935 0.157619
1.864554 -7.556934 -0.362571
1.096569 -5.609989 -0.299571
1.337189 -5.419551 0.685393
1.221391 -6.248569 0.519756
24.402452 -81.544403 -3.467772
1.199162 -8.260324 -0.291481
1.096778 -4.445181 1.226802
1.080265 -5.526579 1.026707
1.468525 -5.951850 -0.142650
30.655630 -103.757607 -1.888490
1.088548 -5.674081 -0.168143
0.676793 -2.784765 -0.802256
1.067122 -5.562397 -1.132774
1.546375 -6.362785 0.000000
11.161087 -78.816277 -0.926723
1.832285 -7.539206 -1.207068
1.072817 -5.592080 -0.724780
1.086730 -5.664602 -0.033523
1.809851 -7.446896 -0.825504
1.130227 -7.981328 -0.752475
1.468517 -6.042428 0.144697
11.193053 -79.042015 0.929378
1.747095 -7.188679 -0.517314
1.077887 -5.618509 -0.467032
1.739008 -5.885878 0.178616
0.725644 -3.782437 0.067227
2.169379 -7.342521 -0.490682
1.156736 -8.168526 -0.480461
1.344777 -5.533283 0.331625
1.840995 -7.575045 -0.363129
1.079991 -5.629474 -0.300408
1.188305 -6.194064 0.514874
30.646212 -103.725723 -4.406482
1.169200 -8.256544 -0.291201
0.896940 -3.690591 1.017676
0.677655 -3.532291 0.655773
1.441130 -5.929739 -0.141998
30.310448 -103.788124 -1.887303
0.667143 -2.783131 -0.801178
1.050369 -5.569576 -1.133558
1.345488 -5.612989 0.000000
10.916163 -78.870766 -0.926956
1.751468 -7.306624 -1.168944
1.057449 -5.607121 -0.726295
1.832217 -6.273822 0.037987
1.098595 -7.937498 -0.748014
1.334870 -5.568694 0.133251
10.943581 -79.068855 0.929284
1.793334 -7.481277 -0.537962
1.061708 -5.629703 -0.467683
1.729475 -5.922016 0.179547
0.706346 -3.745397 0.066529
2.131754 -7.299488 -0.487356
1.138185 -8.223541 -0.483484
1.320871 -5.510297 0.329997
1.789246 -7.464223 -0.357545
1.068962 -5.668167 -0.302293
0.895859 -3.737266 0.471878
1.191005 -6.315297 0.524638
1.139967 -8.236418 -0.290364
1.082584 -4.516231 1.244402
1.034108 -5.483352 1.017380
1.414104 -5.899238 -0.141161
29.933586 -103.843338 -1.886396
1.079983 -5.838439 -0.172798
2.366020 -10.024595 -2.883378
1.031635 -5.577065 -1.134343
4.596382 -34.085152 -0.400407
1.778612 -7.535805 -1.204608
1.038593 -5.614679 -0.726800
1.809199 -6.276336 0.037963
1.742151 -7.381322 -0.816936
1.072479 -7.953125 -0.749129
1.311749 -5.557752 0.132879
10.664847 -79.086754 0.929052
1.043501 -5.641215 -0.468334
1.720975 -5.970277 0.180827
1.047541 -5.663052 0.100526
2.078620 -7.210993 -0.480961
1.094531 -8.116657 -0.476973
1.299795 -5.507102 0.329532
1.753085 -7.427646 -0.355498
1.068788 -5.777917 -0.307945
1.289556 -5.463722 0.689293
1.135596 -6.139085 0.509667
2.155328 -7.477099 -0.317028
1.109074 -8.224500 -0.289805
1.064151 -4.508701 1.241296
0.664950 -3.594750 0.666535
1.325528 -5.616131 -0.134275
0.462573 -2.550431 -1.208688
29.555597 -103.893341 -1.885418
0.707112 -3.898717 -0.115315
2.308348 -9.935243 -2.855342
1.014261 -5.592211 -1.136696
1.296312 -5.579388 0.000000
4.483101 -34.144615 -0.400919
1.755874 -7.557367 -1.207068
1.023236 -5.641696 -0.729830
1.778523 -6.251834 0.037777
1.701074 -7.321504 -0.809654
1.038489 -7.909435 -0.744668
1.290531 -5.554507 0.132693
1.025938 -5.656592 -0.469310
1.747168 -6.141614 0.185830
1.026339 -5.658804 0.100386
2.056713 -7.229723 -0.481728
1.057874 -8.057080 -0.473252
1.277852 -5.499937 0.328834
1.749753 -7.531021 -0.360151
1.046474 -5.769821 -0.307317
1.274070 -5.483659 0.691243
1.092104 -6.021407 0.499578
2.119371 -7.449979 -0.315563
4.319349 -32.897427 -1.158663
1.056275 -4.546259 1.250614
1.002825 -5.529157 1.024555
1.303201 -5.609039 -0.133996
29.176548 -103.938118 -1.884371
0.659208 -3.708268 -0.109613
2.216125 -9.691654 -2.783096
1.000912 -5.630472 -1.143756
1.274153 -5.572180 0.000000
1.046116 -8.188891 -0.096109
1.515390 -6.627170 -1.057645
1.009787 -5.680394 -0.734376
1.762094 -6.277260 0.037894
0.688879 -3.875180 -0.022876
1.741108 -7.614290 -0.841354
0.935171 -7.320425 -0.688901
1.270243 -5.555079 0.132600
10.084075 -78.937103 0.926444
1.706888 -7.464638 -0.535451
1.011070 -5.687615 -0.471589
1.717074 -6.116879 0.184899
1.006580 -5.662352 0.100386
1.041887 -8.155788 -0.478833
1.261316 -5.516042 0.329532
1.035278 -5.823790 0.240987
1.287024 -5.628467 -0.268950
1.024929 -5.765573 -0.306898
1.511569 -6.610457 0.832611
1.057821 -5.950603 0.493394
2.118197 -7.545835 -0.319308
1.254852 -5.487774 1.508397
1.273808 -5.570673 -0.132972
28.812483 -103.964920 -1.883115
1.021866 -5.861068 -0.173147
2.182282 -9.691434 -2.780940
0.989646 -5.676265 -1.152385
1.254789 -5.572473 0.000000
1.516848 -6.736268 -1.074247
1.722040 -6.213685 0.037475
0.669842 -3.841979 -0.022666
1.655567 -7.352312 -0.811796
0.981677 -7.892607 -0.742437
1.252693 -5.563162 0.132693
9.825213 -78.993919 0.926723
1.275400 -5.664004 -0.405983
1.003845 -5.757704 -0.477121
1.683966 -6.076303 0.183503
0.656699 -3.766599 0.066738
2.076750 -7.493598 -0.498357
1.017300 -8.179011 -0.479996
1.244771 -5.527985 0.329997
0.990561 -5.681511 0.234962
1.257819 -5.585927 -0.266716
1.005118 -5.765005 -0.306689
1.262007 -5.604527 0.705380
1.031919 -5.918731 0.490465
2.082488 -7.514303 -0.317680
1.240891 -5.510752 1.513574
0.627223 -3.597530 0.665817
1.252693 -5.563162 -0.132693
28.434647 -104.010841 -1.882137
0.995345 -5.829128 -0.172100
2.440841 -11.019018 -3.159423
1.169866 -6.851193 -1.390079
1.236195 -5.580724 0.000000
1.465972 -6.618037 -1.054570
5.102611 -29.882889 -3.858757
1.687682 -6.173357 0.037196
1.003155 -5.874869 -0.034639
1.243707 -5.614636 -0.619449
0.972277 -8.046234 -0.756565
1.233266 -5.567502 0.132693
9.548940 -79.023766 0.926677
1.240951 -5.602192 -0.401239
1.395758 -8.174106 -0.676952
1.654311 -6.051289 0.182572
1.003692 -5.878016 0.104086
2.044265 -7.477698 -0.496822
0.993056 -8.218194 -0.482089
1.231514 -5.559588 0.331625
0.966687 -5.661296 0.233985
1.237449 -5.586383 -0.266530
0.987678 -5.784229 -0.307526
1.239002 -5.593394 0.703430
1.008569 -5.906577 0.489163
2.068894 -7.567788 -0.319634
0.980705 -8.115979 -0.285478
1.069569 -4.828498 1.325154
0.604726 -3.541513 0.655055
1.234996 -5.575310 -0.132879
28.058899 -104.063141 -1.881300
0.974990 -5.832567 -0.172100
2.413840 -11.080162 -3.174520
1.216707 -5.585005 0.000000
1.224960 -5.622889 -0.895309
1.254800 -7.506439 -0.968730
1.641130 -6.086524 0.036638
0.981322 -5.870444 -0.034593
1.218174 -5.591742 -0.616451
0.951143 -8.108913 -0.762141
1.220633 -5.603030 0.133437
9.270229 -79.032784 0.926397
1.215442 -5.579198 -0.399286
5.226969 -31.268671 -2.588041
1.594663 -5.914191 0.178267
0.985805 -5.897263 0.104365
2.015032 -7.473227 -0.496055
0.985296 -8.400081 -0.492554
1.221449 -5.606772 0.334183
0.946259 -5.660695 0.233823
1.215389 -5.578956 -0.265972
0.972090 -5.815220 -0.308992
0.987944 -5.910062 0.489163
1.977954 -7.335714 -0.309538
0.965873 -8.234493 -0.289526
0.791997 -3.635477 0.996971
1.075071 -6.431270 1.188857
1.213824 -5.571772 -0.132693
27.682129 -104.110199 -1.880392
0.955271 -5.839880 -0.172216
0.537576 -3.286374 -0.666014
1.198042 -5.593130 0.000000
0.929042 -8.166769 -0.095690
1.197874 -5.592347 -0.889774
1.218342 -7.448118 -0.960649
1.613708 -6.069021 0.036499
0.961470 -5.877781 -0.034616
1.192818 -5.568738 -0.613452
0.914280 -8.036998 -0.755078
1.199393 -5.599436 0.133251
8.995209 -79.072609 0.926491
1.193452 -5.571702 -0.398449
5.137100 -31.404758 -2.597805
1.569900 -5.904265 0.177801
0.969088 -5.924348 0.104784
2.014577 -7.576659 -0.502450
3.216352 -28.273428 -1.657195
1.199361 -5.599287 0.333485
0.927140 -5.667907 0.233985
1.197581 -5.590979 -0.266344
1.203248 -5.617435 0.705380
0.967309 -5.913474 0.489163
1.946174 -7.319399 -0.308561
0.775256 -3.619329 0.991795
0.980197 -5.992262 1.107065
1.196043 -5.583796 -0.132879
0.940718 -5.866540 -0.172914
0.662979 -3.143344 -0.899303
0.529111 -3.299665 -0.668368
1.178814 -5.589038 0.000000
0.905579 -8.189526 -0.095923
1.174590 -5.569011 -0.885470
1.199334 -7.479334 -0.964184
1.592602 -6.066323 0.036452
1.172855 -5.560784 -0.612167
0.857509 -7.754815 -0.728310
1.180145 -5.595351 0.133065
8.748066 -79.112411 0.926630
1.175942 -5.575424 -0.398449
5.056717 -31.534903 -2.607244
1.561496 -5.947841 0.178965
0.949204 -5.919466 0.104645
1.976573 -7.528897 -0.498869
3.646277 -32.974804 -1.932076
1.183413 -5.610843 0.333951
0.910594 -5.678684 0.234311
1.177537 -5.582984 -0.265786
1.206078 -5.718306 0.717567
0.955670 -5.959785 0.492743
1.937377 -7.379596 -0.310841
0.936723 -8.471173 -0.297623
0.776640 -3.682236 1.008359
0.957005 -5.968113 1.102042
1.177670 -5.583613 -0.132786
1.602268 -6.191050 -0.111626
0.643404 -3.104149 -0.887442
0.493290 -3.146493 -0.636989
1.158486 -5.589202 0.000000
3.639922 -34.003414 -0.398125
1.154341 -5.569207 -0.884855
1.301051 -8.298857 -1.069239
1.580437 -6.106697 0.036662
1.151823 -5.557056 -0.611310
0.907587 -8.478491 -0.795973
1.160607 -5.599437 0.133065
8.472292 -79.146439 0.926677
1.157284 -5.583402 -0.398728
1.181234 -7.534598 -0.622601
1.543731 -5.964867 0.179314
1.009063 -6.436390 0.113720
1.943281 -7.508699 -0.497078
0.881089 -8.230950 -0.482089
1.169494 -5.642310 0.335578
1.158853 -5.590973 -0.265972
12.325393 -78.618500 -4.170548
1.193363 -5.757469 0.721954
1.003401 -6.400273 0.528869
1.939645 -7.494652 -0.315400
0.925444 -8.645309 -0.303626
0.760645 -3.669791 1.004218
0.539393 -3.440563 0.634966
1.530290 -5.994823 -0.107995
1.161416 -7.572206 -0.222950
0.677724 -3.325176 -0.949984
0.481070 -3.136480 -0.634636
1.140744 -5.596932 0.000000
3.523842 -33.983475 -0.397753
1.135077 -5.569132 -0.884240
1.218179 -7.942290 -1.022773
1.626463 -6.371572 0.038219
12.069447 -78.690445 -0.462698
1.133388 -5.560845 -0.611310
0.798543 -7.701049 -0.722733
1.144428 -5.615010 0.133344
8.211021 -79.186035 0.926817
1.137965 -5.583299 -0.398449
1.225145 -7.987709 -0.659703
1.528887 -5.989325 0.179896
0.985895 -6.427842 0.113510
1.921332 -7.526705 -0.497846
0.855024 -8.245743 -0.482787
1.141104 -5.598701 -0.266158
12.074305 -78.722115 -4.173898
0.867937 -5.658781 0.467358
1.960253 -7.679178 -0.322890
0.885225 -8.536995 -0.299717
0.750786 -3.683651 1.007324
0.513066 -3.345092 0.617029
0.744317 -3.651911 -0.086725
1.501414 -5.977381 -0.107577
11.766562 -78.731895 -2.316770
0.464385 -3.107270 -0.628360
1.119245 -5.601272 0.000000
3.398095 -34.044518 -0.398311
1.112136 -5.565698 -0.883011
1.190606 -7.966532 -1.025298
1.519158 -6.048019 0.036243
11.766024 -78.728294 -0.462652
1.110470 -5.557357 -0.610453
0.761452 -7.628762 -0.715669
1.130695 -5.658576 0.134275
7.905318 -79.201057 0.926630
1.113391 -5.571976 -0.397333
1.190340 -7.964753 -0.657425
1.511722 -6.018417 0.180594
0.966527 -6.467179 0.114139
1.864215 -7.421752 -0.490426
0.929246 -6.217731 0.256130
1.119598 -5.603041 -0.266158
0.843256 -5.642358 0.465730
1.926858 -7.671144 -0.322239
0.873482 -8.751155 -0.307116
0.738151 -3.694084 1.009394
0.490330 -3.280875 0.604832
1.123643 -5.623284 -0.133437
1.476856 -5.958776 -0.107158
11.519736 -78.772423 -2.316887
1.093546 -5.563570 -1.587260
0.454621 -3.108714 -0.628360
0.732885 -3.728657 0.000000
3.385386 -35.030415 -0.409720
1.094645 -5.569164 -0.883011
1.164998 -7.966306 -1.024793
1.490527 -6.013938 0.036011
11.518631 -78.764870 -0.462652
1.093005 -5.560818 -0.610453
1.112912 -5.662101 0.134275
3.385771 -35.034393 0.409766
1.098189 -5.587192 -0.398170
1.165312 -7.968453 -0.657425
1.489921 -6.011494 0.180245
0.948519 -6.486012 0.114418
1.841850 -7.431447 -0.490682
0.803967 -8.319081 -0.486740
0.750129 -3.816388 0.226510
0.912599 -6.240392 0.256944
1.105072 -5.622213 -0.266903
16.445868 -83.670692 10.470039
0.816872 -5.585806 0.460848
0.843293 -8.726003 -0.306138
0.728032 -3.703967 1.011465
0.522157 -3.570534 0.657925
0.721118 -3.668790 -0.087004
1.455098 -5.960010 -0.107088
1.182019 -8.284559 -0.243546
1.067552 -5.533314 -1.577555
0.947921 -6.643810 -1.342227
1.090407 -5.651774 0.000000
3.102512 -33.317593 -0.389557
1.120370 -7.852479 -1.009641
1.575780 -6.454314 0.038614
11.243627 -78.804604 -0.462652
1.075848 -5.576314 -0.611738
0.718595 -7.716921 -0.723477
0.731791 -3.793006 0.089889
3.260122 -35.010155 0.409347
1.082459 -5.610581 -0.399565
1.140869 -7.996152 -0.659378
1.356080 -5.554436 0.166398
11.269219 -78.983971 1.392632
1.776135 -7.274959 -0.479937
2.727229 -29.287458 -1.713008
1.167235 -6.049991 0.358834
1.087712 -5.637806 -0.267461
1.167921 -8.185755 -0.433342
16.153709 -83.727585 10.470039
0.795680 -5.576784 0.459872
1.839918 -7.536213 -0.316051
0.812829 -8.728894 -0.306138
0.702656 -3.641992 0.993865
0.505244 -3.541169 0.652185
0.730276 -3.785154 -0.089703
0.493407 -3.551241 -1.671878
1.365039 -5.681427 -0.101992
1.149445 -8.272994 -0.243080
1.046548 -5.533404 -1.576477
0.914927 -6.585080 -1.329675
1.068941 -5.651803 0.000000
3.132850 -35.033821 -0.409487
1.092128 -7.860462 -1.010146
1.549309 -6.448379 0.038545
10.953615 -78.837357 -0.462605
1.056881 -5.588035 -0.612595
0.686049 -7.671901 -0.719015
1.073111 -5.673849 0.134368
7.140292 -79.847954 0.933289
1.071528 -5.665481 -0.403192
1.102227 -7.933151 -0.653845
1.332911 -5.547706 0.166049
10.980752 -79.032669 1.392772
1.800749 -7.494895 -0.494008
0.747263 -8.356441 -0.488600
1.140600 -6.030686 0.357439
0.891572 -6.416985 0.263946
1.072981 -5.673163 -0.268950
1.144508 -8.237458 -0.435854
0.776881 -5.591509 0.460848
1.770269 -7.368032 -0.308724
0.781898 -8.743759 -0.306557
0.495511 -3.566383 0.656490
0.481628 -3.552857 -1.671878
1.324998 -5.596410 -0.100386
1.118244 -8.249025 -0.242266
1.028193 -5.536844 -1.576477
0.878332 -6.479248 -1.307710
2.959712 -34.382507 -0.401757
0.586688 -3.159332 -0.499922
1.061791 -7.832584 -1.006105
1.326099 -5.601060 0.033453
10.695342 -78.897026 -0.462745
1.041248 -5.607149 -0.614309
0.649332 -7.543189 -0.706747
1.049909 -5.653786 0.133810
6.876493 -79.883148 0.933429
1.049092 -5.649386 -0.401797
1.082340 -7.984170 -0.657750
1.309901 -5.532642 0.165467
10.713773 -79.032982 1.392144
1.747375 -7.380407 -0.486077
0.720233 -8.366830 -0.489065
1.078966 -5.810259 -0.275278
0.758870 -5.598005 0.461174
1.743063 -7.362195 -0.308236
0.751870 -8.734355 -0.306138
0.708252 -3.813954 1.039417
0.479982 -3.540711 0.651468
0.688501 -3.707594 -0.087749
0.470647 -3.565299 -1.676949
1.301823 -5.585422 -0.100107
1.009549 -5.544189 -1.577555
0.856736 -6.490052 -1.309279
0.699385 -3.840844 0.000000
2.837371 -34.364723 -0.401431
0.577073 -3.169138 -0.501152
1.036002 -7.848045 -1.007620
1.297460 -5.566700 0.033221
10.418303 -78.921982 -0.462675
1.024519 -5.626401 -0.616022
0.634795 -7.688300 -0.720131
1.029451 -5.653482 0.133717
6.595958 -79.886726 0.933196
1.029365 -5.653014 -0.401797
1.039333 -7.873279 -0.648312
1.289672 -5.533287 0.165351
10.415321 -78.899399 1.389142
1.718883 -7.374799 -0.485310
0.691679 -8.377252 -0.489531
1.097378 -6.026524 0.356741
10.417165 -78.913368 3.242905
1.057246 -5.806129 -0.274906
4.470742 -33.867306 -1.790308
1.308200 -5.612781 -0.234800
0.721376 -8.736926 -0.306138
1.099159 -6.036304 1.644019
0.826573 -6.261559 1.151548
0.697046 -3.828002 -0.090540
0.458359 -3.563245 -1.675259
1.279715 -5.574116 -0.099828
10.150371 -78.908150 -2.315374
0.992514 -5.555090 -1.579712
0.835711 -6.496747 -1.310064
0.691569 -3.870705 0.000000
2.693707 -33.999146 -0.397054
0.565170 -3.163252 -0.499922
1.017565 -7.910470 -1.015197
1.277204 -5.563175 0.033174
10.152966 -78.928322 -0.462512
1.010753 -5.657172 -0.619021
0.598917 -7.559344 -0.707862
1.012104 -5.664737 0.133903
6.332279 -79.924110 0.933382
1.014825 -5.679965 -0.403471
1.005589 -7.817369 -0.643430
1.268633 -5.525842 0.165002
10.156693 -78.957306 1.389561
1.691739 -7.368786 -0.484542
10.157470 -78.963341 3.243556
1.035879 -5.797802 -0.274348
1.049852 -8.161462 -0.431248
1.133317 -6.343162 0.791176
1.287792 -5.609297 -0.234474
0.692716 -8.743255 -0.306278
1.090689 -6.104574 1.661618
0.456874 -3.551702 0.652903
1.045865 -5.853694 -0.138369
0.444568 -3.554031 -1.670187
1.256725 -5.562944 -0.099549
9.876353 -78.955002 -2.315723
0.913804 -7.305267 -1.472449
1.029151 -5.878595 0.000000
2.581352 -34.092098 -0.398032
0.556170 -3.176886 -0.501766
0.989946 -7.913974 -1.015197
1.256014 -5.559796 0.033128
9.878383 -78.971222 -0.462559
1.364081 -7.791740 -0.852064
0.573428 -7.573303 -0.708977
0.992324 -5.668236 0.133903
10.650943 -140.667786 1.642324
1.002561 -5.726708 -0.406541
0.996109 -7.963244 -0.655147
1.251979 -5.541937 0.165351
9.879030 -78.976402 1.389281
1.264019 -5.595231 -0.367628
0.662982 -8.756059 -0.511391
1.034297 -5.907985 0.349299
9.883259 -79.010208 3.244045
1.014945 -5.797447 -0.274161
1.031768 -8.248312 -0.435645
1.115276 -6.370543 0.794101
9.899239 -79.137955 6.510786
1.257636 -5.566977 -0.232520
2.380451 -31.438791 -1.101009
1.070706 -6.115956 1.663689
0.432263 -3.455657 0.634966
1.024735 -5.853370 -0.138276
0.432159 -3.555562 -1.670187
1.236431 -5.563393 -0.099479
0.876940 -7.214964 -1.453621
1.005245 -5.862439 0.000000
2.413937 -33.430687 -0.390209
1.303909 -7.604207 -1.200304
0.985774 -8.110393 -1.039945
1.240938 -5.583670 0.033244
9.599763 -78.981400 -0.462419
1.342251 -7.827812 -0.855491
0.558748 -7.738124 -0.724220
0.975912 -5.691372 0.134368
10.177999 -140.955429 1.645258
0.989308 -5.769501 -0.409331
0.991876 -8.160596 -0.671094
1.236964 -5.565789 0.165932
9.603771 -79.014374 1.389351
1.240150 -5.580125 -0.366349
1.010293 -5.891880 0.348136
9.604988 -79.024391 3.243231
0.996052 -5.808830 -0.274534
0.592478 -3.455244 0.430443
9.610426 -79.069130 6.502324
1.238196 -5.571333 -0.232520
2.179140 -30.178984 -1.056617
1.048697 -6.115848 1.662654
0.415449 -3.418082 0.627791
1.001593 -5.841146 -0.137904
0.420792 -3.560575 -1.671878
1.216266 -5.559649 -0.099339
0.967140 -8.183561 -0.239822
0.855771 -7.241203 -1.458328
0.986461 -5.869685 0.000000
2.297841 -33.362694 -0.389324
0.539118 -3.207882 -0.506071
0.944437 -7.991459 -1.024288
1.221560 -5.583847 0.033221
4.130676 -34.952168 -0.204556
1.310354 -7.796922 -0.851636
0.524054 -7.608817 -0.711952
0.986857 -5.872040 0.138555
2.387160 -34.659538 0.404458
0.965277 -8.167800 -0.671420
1.223627 -5.593296 0.166631
9.342634 -79.053734 1.389491
1.219079 -5.572509 -0.365581
0.607482 -8.820124 -0.514879
0.626746 -3.729294 0.220231
9.346632 -79.087555 3.244533
0.978108 -5.819983 -0.274906
0.960598 -8.128202 -0.428946
0.577727 -3.437614 0.428005
9.348168 -79.100555 6.502324
1.218005 -5.567600 -0.232194
2.071085 -30.070391 -1.052569
0.611480 -5.174102 0.949938
0.982881 -5.848379 -0.137997
1.196852 -5.563860 -0.099339
0.938113 -8.182915 -0.239706
0.415092 -2.523765 -0.715992
0.835404 -7.287012 -1.466957
0.965318 -5.869145 0.000000
2.230681 -34.124851 -0.398125
1.801205 -10.951352 -1.726667
0.881737 -7.691161 -0.985397
1.202061 -5.588077 0.033221
0.503986 -7.709955 -0.721246
0.968950 -5.891232 0.138927
9.216237 -140.989502 1.644885
1.349577 -8.205450 -0.581490
0.939485 -8.194883 -0.673372
