1.567506 2.903887 -0.019179
0.492463 1.029693 -0.122947
0.739813 1.223503 -0.133468
1.273313 2.662379 0.068673
0.916823 1.516243 0.020628
0.633556 1.324707 -0.102682
0.621147 1.150707 -0.106750
1.126094 2.684117 0.084712
1.417213 2.625462 0.052078
1.107276 2.639264 -0.183430
0.747971 1.236995 -0.084185
1.266335 2.647788 0.170929
1.414356 2.620168 0.121308
0.718889 1.503130 -0.077614
0.736205 1.363858 -0.081225
1.276155 2.668321 0.363171
1.418411 2.627680 0.243768
0.224200 0.534394 -0.023610
0.812904 1.344382 -0.054862
1.265266 2.645554 0.785775
1.429957 2.649069 0.548869
1.259510 2.633518 -0.067928
0.266780 0.629716 -0.011937
1.594196 2.928826 -0.097046
1.278977 2.650410 -0.823822
1.430762 2.628567 -0.598550
1.284685 2.662240 0.000000
0.967904 1.588173 -0.021652
1.269414 2.630595 -0.454418
0.497017 0.913109 -0.132329
1.142160 2.695991 0.017017
0.801247 1.472034 -0.009741
0.494326 1.024386 -0.122519
0.723353 1.186904 -0.129750
1.284337 2.661520 0.068766
1.723493 2.827973 0.038555
0.549734 1.139207 -0.088451
0.672809 1.236072 -0.114887
1.124539 2.654398 0.083897
1.430194 2.627524 0.052218
1.122712 2.650085 -0.184454
0.779300 1.278705 -0.087209
1.279041 2.650544 0.171394
1.429226 2.625746 0.121796
0.718922 1.489815 -0.077056
0.737142 1.354263 -0.080807
1.287187 2.667426 0.363658
1.425669 2.619211 0.243443
1.161500 2.741642 -0.121308
0.805110 1.321054 -0.054024
1.274494 2.641121 0.785775
1.442958 2.650974 0.550304
1.270434 2.632707 -0.068021
0.228079 0.533177 -0.010122
1.594791 2.905718 -0.096464
1.279789 2.628613 -0.818431
1.443702 2.630434 -0.600119
1.299223 2.668529 0.000000
1.000656 1.629091 -0.022258
1.278589 2.626148 -0.454418
0.496382 0.904411 -0.131319
1.145270 2.677277 0.016924
0.802531 1.462216 -0.009694
0.494417 1.015503 -0.121662
0.725407 1.180979 -0.129378
1.298871 2.667807 0.069045
0.927386 1.509806 0.020628
0.539733 1.108581 -0.086219
0.627247 1.142847 -0.106425
1.136942 2.657809 0.084130
1.439357 2.622516 0.052218
1.131955 2.646150 -0.184454
0.773308 1.258964 -0.086046
1.291781 2.653244 0.171859
1.442229 2.627749 0.122122
0.729365 1.498075 -0.077614
0.741865 1.351681 -0.080807
1.298228 2.666486 0.364146
1.440557 2.624704 0.244419
1.139625 2.664080 -0.118051
0.799254 1.301204 -0.053326
1.282014 2.633183 0.784739
1.455989 2.652821 0.551739
1.286617 2.642639 -0.068394
1.612669 2.914126 -0.096930
1.287259 2.620672 -0.817352
1.454775 2.628810 -0.600903
1.308530 2.663977 0.000000
0.852649 1.377329 -0.018859
1.296461 2.639406 -0.457493
0.495694 0.895729 -0.130309
1.154609 2.673263 0.016924
1.599767 2.890812 -0.019203
0.503219 1.024480 -0.122947
0.740007 1.195371 -0.131237
1.306413 2.659667 0.068952
0.917914 1.482754 0.020302
0.538322 1.095945 -0.085382
0.654397 1.182509 -0.110330
1.147799 2.657495 0.084246
1.454312 2.627973 0.052427
1.145934 2.653177 -0.185221
0.756680 1.222304 -0.083720
1.299275 2.645134 0.171626
1.453328 2.626195 0.122285
0.734590 1.495519 -0.077614
0.756249 1.366559 -0.081853
1.309279 2.665501 0.364633
1.451642 2.623147 0.244744
1.153672 2.671092 -0.118540
0.803792 1.298406 -0.053326
1.294605 2.635627 0.786810
1.463336 2.644279 0.551021
1.171300 2.687390 -0.051170
1.622322 2.908763 -0.096930
1.297652 2.619841 -0.818431
1.463484 2.623972 -0.600903
1.319132 2.663208 0.000000
0.876261 1.405038 -0.019278
0.500594 0.897546 -0.130814
1.161869 2.665753 0.016901
1.632724 2.927412 -0.019482
0.494256 0.997859 -0.119949
0.718676 1.152358 -0.126776
1.317000 2.658904 0.069045
0.952458 1.527215 0.020954
0.541953 1.094154 -0.085382
0.652489 1.169887 -0.109354
1.158202 2.657339 0.084363
1.463018 2.623137 0.052427
1.154725 2.649362 -0.185221
0.748050 1.199458 -0.082325
1.313356 2.651546 0.172324
1.462029 2.621362 0.122285
0.732451 1.478753 -0.076869
0.754939 1.353578 -0.081225
1.321635 2.668261 0.365608
1.468099 2.632247 0.246046
1.146554 2.630614 -0.116911
0.825016 1.322870 -0.054443
1.308482 2.641706 0.789916
1.475929 2.646285 0.552456
1.172619 2.664982 -0.050821
1.638345 2.913538 -0.097279
1.308510 2.618742 -0.819509
1.472634 2.618847 -0.600903
1.328420 2.658587 0.000000
0.896059 1.425676 -0.019604
1.309096 2.619914 -0.455648
0.503724 0.895793 -0.130814
1.169556 2.658020 0.016878
0.817545 1.453874 -0.009694
0.503069 1.006801 -0.121234
0.697261 1.109379 -0.122314
1.328060 2.657868 0.069138
0.957782 1.523881 0.020954
0.551120 1.102964 -0.086219
0.670247 1.191928 -0.111632
1.169080 2.656940 0.084479
1.480007 2.631958 0.052706
1.168789 2.656277 -0.185989
1.324388 2.650518 0.172557
1.475087 2.623210 0.122610
0.737608 1.476187 -0.076869
0.761617 1.354416 -0.081435
1.329165 2.660079 0.365121
1.479232 2.630581 0.246372
1.166996 2.652204 -0.118051
0.804102 1.279367 -0.052768
1.317695 2.637123 0.789916
1.487086 2.644547 0.553174
0.745358 1.491697 -0.038803
1.185162 2.668182 -0.050961
1.666253 2.939105 -0.098326
1.319378 2.617598 -0.820587
1.479833 2.610278 -0.600119
1.339493 2.657506 0.000000
0.868927 1.371855 -0.018905
1.328908 2.636505 -0.459338
0.502934 0.887126 -0.129804
1.180451 2.657577 0.016901
1.670875 2.947259 -0.019691
0.513741 1.019244 -0.122947
0.692606 1.093480 -0.120827
1.337331 2.653215 0.069138
0.545986 1.083217 -0.084824
0.676370 1.193049 -0.111958
1.176726 2.649189 0.084363
1.487213 2.623296 0.052636
1.173193 2.641236 -0.185221
0.722218 1.140231 -0.078604
1.333633 2.645879 0.172557
1.486207 2.621521 0.122773
0.739160 1.466467 -0.076497
0.764371 1.348274 -0.081225
1.340230 2.658969 0.365608
1.488406 2.625401 0.246372
1.174626 2.644461 -0.117888
1.328632 2.635957 0.790951
1.500190 2.646187 0.554609
0.754161 1.496228 -0.038989
1.192367 2.660588 -0.050891
1.681940 2.943978 -0.098675
1.329795 2.616642 -0.821666
1.351922 2.660181 0.000000
0.879925 1.379081 -0.019045
1.335852 2.628560 -0.458723
0.499968 0.875117 -0.128289
1.189257 2.653648 0.016901
0.825438 1.444803 -0.009671
0.509911 1.003353 -0.121234
0.706939 1.107965 -0.122686
1.351556 2.659461 0.069417
0.551383 1.084958 -0.085103
0.717898 1.256571 -0.118141
1.188774 2.652570 0.084595
1.497887 2.621823 0.052706
0.693776 1.087335 -0.075116
1.346017 2.648561 0.173022
1.498857 2.623519 0.123099
0.744019 1.464008 -0.076497
0.751004 1.314517 -0.079341
1.352637 2.661588 0.366583
1.503037 2.630836 0.247348
1.188292 2.651493 -0.118377
0.823543 1.290714 -0.053466
1.335614 2.628093 0.789916
1.512861 2.648031 0.556043
0.762742 1.500849 -0.039175
1.208707 2.670774 -0.051170
1.690723 2.934329 -0.098559
1.335862 2.604895 -0.819509
1.359838 2.651649 0.000000
0.902284 1.402758 -0.019417
1.345478 2.623646 -0.458723
0.511096 0.887031 -0.130309
1.202274 2.656559 0.016948
1.685420 2.925124 -0.019621
0.515400 1.005016 -0.121662
0.726077 1.128813 -0.125289
1.364945 2.661606 0.069603
0.988834 1.537315 0.021280
0.591773 1.153942 -0.090683
0.666769 1.157209 -0.109028
1.200137 2.651837 0.084712
1.509484 2.619780 0.052776
0.773365 1.202331 -0.083255
1.353894 2.640057 0.172789
1.510458 2.621470 0.123262
0.738440 1.439939 -0.075380
0.737869 1.280605 -0.077457
1.364196 2.660146 0.367070
1.514660 2.628764 0.247673
1.198002 2.647120 -0.118377
0.789342 1.227169 -0.050953
1.348765 2.630055 0.791986
1.522557 2.642468 0.556043
0.764588 1.490926 -0.038989
1.221346 2.673814 -0.051310
1.708988 2.942239 -0.099024
0.918042 1.580525 -0.365563
0.850613 1.312335 -0.018207
1.356443 2.622445 -0.459338
0.506217 0.871517 -0.128289
1.211540 2.652346 0.016948
0.809638 1.393895 -0.009369
0.517078 0.999679 -0.121234
0.710517 1.096193 -0.121943
1.372389 2.653274 0.069510
0.560966 1.084529 -0.085382
0.692831 1.192796 -0.112608
1.211047 2.651269 0.084828
1.520628 2.617954 0.052846
0.758009 1.169466 -0.081162
1.368604 2.645956 0.173487
1.521606 2.619638 0.123424
0.741626 1.433804 -0.075194
0.746347 1.284930 -0.077876
1.375297 2.658894 0.367558
1.525829 2.626908 0.247999
1.212216 2.653828 -0.118865
0.850152 1.311624 -0.054583
1.365037 2.639059 0.796127
1.533747 2.640540 0.556761
0.769787 1.488248 -0.038989
1.230671 2.669535 -0.051310
0.818208 1.397396 -0.047127
1.368267 2.622827 -0.828135
0.925535 1.580696 -0.366347
0.892370 1.366287 -0.018998
1.365589 2.617694 -0.459338
0.505246 0.862897 -0.127278
1.222465 2.651734 0.016971
0.822583 1.404867 -0.009462
0.527922 1.011972 -0.122947
0.709983 1.087038 -0.121199
1.381642 2.648467 0.069510
0.874873 1.339496 0.018626
0.568439 1.089640 -0.085940
0.813826 1.389912 -0.131485
1.221968 2.650656 0.084944
1.535819 2.622984 0.053055
0.731990 1.587810 -0.112054
0.748985 1.146753 -0.079767
1.379679 2.644703 0.173719
1.532760 2.617761 0.123587
1.524670 2.922637 -0.153553
0.756882 1.292659 -0.078504
1.384569 2.654078 0.367558
1.537003 2.625007 0.248324
1.223145 2.653210 -0.119028
1.372453 2.630852 0.795092
1.550908 2.648754 0.559631
0.774977 1.485553 -0.038989
1.241670 2.668849 -0.051380
0.794629 1.346325 -0.045498
1.370240 2.604399 -0.823822
1.576998 2.671878 -0.620515
0.810169 1.539879 0.000000
1.053253 1.600380 -0.022304
1.371038 2.605915 -0.458108
0.508255 0.861128 -0.127278
1.235089 2.654704 0.017017
0.823416 1.395098 -0.009415
0.544413 1.034760 -0.125946
0.713773 1.084553 -0.121199
1.392741 2.647167 0.069603
0.665136 1.264215 -0.099891
0.816647 1.383629 -0.131160
1.229527 2.642749 0.084828
1.546999 2.621051 0.053125
0.692064 1.487524 -0.105146
0.728836 1.107439 -0.077209
1.390762 2.643404 0.173952
1.543921 2.615836 0.123750
1.544165 2.934977 -0.154483
0.751238 1.272809 -0.077457
1.395674 2.652741 0.368045
1.548184 2.623059 0.248650
1.223970 2.630805 -0.118214
0.727428 1.105301 -0.046207
1.383428 2.629465 0.796127
1.554144 2.633157 0.557478
0.763401 1.450987 -0.038152
1.257778 2.678978 -0.051659
0.801368 1.346979 -0.045614
0.804291 1.515841 0.000000
1.058834 1.596694 -0.022304
1.393094 2.625553 -0.462412
0.505172 0.849118 -0.125763
1.244349 2.650376 0.017017
0.816010 1.371589 -0.009276
0.529382 0.997722 -0.121662
0.717555 1.082054 -0.121199
1.405722 2.649354 0.069789
0.979255 1.476691 0.020628
0.695728 1.311233 -0.103798
1.242144 2.645679 0.085061
1.552050 2.608761 0.052986
0.695556 1.481486 -0.104890
1.399981 2.638533 0.173952
1.561217 2.624169 0.124401
1.554402 2.929569 -0.154483
0.765889 1.287343 -0.078504
1.406787 2.651360 0.368533
1.561408 2.624490 0.249301
1.236544 2.633752 -0.118540
0.788724 1.189376 -0.049836
1.396220 2.631445 0.798198
1.567351 2.634480 0.558913
1.542546 2.907224 -0.076582
1.261054 2.664170 -0.051450
0.803541 1.341025 -0.045498
1.409276 2.636017 -0.836762
1.570492 2.620986 -0.611102
0.812821 1.520362 0.000000
1.032751 1.546789 -0.021652
1.406926 2.631621 -0.464257
0.507837 0.847527 -0.125763
1.252668 2.646454 0.017017
0.830594 1.386175 -0.009392
0.541889 1.013590 -0.123804
0.714316 1.069858 -0.120084
1.417809 2.651978 0.069976
0.696081 1.302003 -0.103240
1.253870 2.648992 0.085293
1.570516 2.621025 0.053335
0.695083 1.468469 -0.104123
0.707339 1.059408 -0.074185
1.412029 2.641165 0.174417
1.571507 2.622680 0.124564
0.747889 1.398909 -0.073891
0.757610 1.264372 -0.077248
1.418853 2.653930 0.369508
1.573743 2.626412 0.249952
0.790237 1.183567 -0.049697
1.409945 2.637268 0.801304
1.577642 2.632919 0.559631
0.782435 1.463525 -0.038617
1.273793 2.666970 -0.051589
0.804083 1.331367 -0.045265
1.403845 2.603958 -0.828135
1.571520 2.602058 -0.607964
0.812428 1.506952 0.000000
0.897492 1.334100 -0.018719
0.489540 0.908036 -0.160491
0.512843 0.849145 -0.126268
1.267070 2.652893 0.017087
0.827156 1.369572 -0.009299
0.560522 1.039698 -0.127231
0.715823 1.064054 -0.119712
1.427057 2.647013 0.069976
0.787726 1.461133 -0.116075
0.723435 1.197835 -0.114236
1.264832 2.648208 0.085410
1.579655 2.615528 0.053335
0.631388 1.321952 -0.093890
1.749719 2.600915 -0.182557
1.425029 2.643251 0.174882
1.582718 2.620600 0.124727
1.585173 2.940298 -0.155600
0.755823 1.251462 -0.076620
1.429992 2.652457 0.369995
1.584962 2.624316 0.250277
0.803289 1.194070 -0.050255
1.417308 2.628930 0.800269
1.590891 2.634133 0.561066
0.785640 1.457265 -0.038524
1.289236 2.672866 -0.051799
0.805028 1.321441 -0.045032
1.589661 2.609404 -0.611102
0.814384 1.496795 0.000000
0.487356 0.895734 -0.158647
0.507842 0.833615 -0.124248
1.277246 2.648009 0.017087
0.815760 1.339058 -0.009113
0.556907 1.023565 -0.125518
0.722139 1.064594 -0.120084
1.441032 2.648540 0.070162
0.791423 1.454593 -0.115796
0.833811 1.368688 -0.130834
1.276727 2.646933 0.085526
1.593847 2.616274 0.053474
0.596572 1.236824 -0.088006
0.744226 1.097155 -0.077209
1.437075 2.641268 0.175115
1.594847 2.617917 0.124890
1.602179 2.944720 -0.156158
0.760623 1.248551 -0.076620
1.440165 2.646946 0.369995
1.599175 2.625020 0.250928
0.717108 1.486721 -0.067248
0.854993 1.260450 -0.053187
1.432931 2.633651 0.803374
1.600993 2.628005 0.561066
1.576726 2.897938 -0.076768
1.299377 2.672399 -0.051869
0.802904 1.308681 -0.044683
0.392529 0.716078 -0.228600
1.599904 2.607739 -0.611886
1.588176 2.897260 0.000000
0.484469 0.883801 -0.156802
0.516684 0.842162 -0.125763
1.289059 2.651177 0.017134
0.824148 1.343307 -0.009160
0.560120 1.021810 -0.125518
0.736711 1.078764 -0.121943
1.451270 2.647505 0.070255
0.902273 1.321195 0.018626
0.795990 1.452099 -0.115796
1.285038 2.642908 0.085526
1.602060 2.611253 0.053474
0.603947 1.242123 -0.088517
0.684614 1.002478 -0.070697
1.449207 2.643742 0.175580
1.605156 2.616299 0.125053
0.750974 1.369978 -0.072775
0.772898 1.259773 -0.077457
1.452292 2.649371 0.370970
1.605331 2.616584 0.250603
0.714786 1.470083 -0.066597
1.441200 2.629135 0.803374
1.611301 2.626316 0.561783
1.585824 2.892969 -0.076768
1.303877 2.656847 -0.051659
0.809798 1.309130 -0.044799
1.448264 2.619202 -0.837840
1.615641 2.611865 -0.614239
1.606526 2.905422 0.000000
0.499180 0.902773 -0.160491
0.505156 0.816641 -0.122228
1.298767 2.646435 0.017134
0.826961 1.336876 -0.009136
0.556164 1.005828 -0.123804
0.733885 1.066214 -0.120827
1.460963 2.642168 0.070255
0.891235 1.294817 0.018300
0.718280 1.299017 -0.103798
0.715174 1.156160 -0.110981
1.296478 2.641770 0.085643
1.617931 2.615568 0.053684
0.610254 1.243485 -0.088773
0.744886 1.082196 -0.076511
1.458886 2.638413 0.175580
1.618939 2.617197 0.125378
0.754056 1.363719 -0.072589
0.771206 1.246741 -0.076829
1.463914 2.647505 0.371458
1.617007 2.614074 0.250928
0.720169 1.467453 -0.066597
0.863553 1.254601 -0.053187
1.454565 2.630598 0.805445
1.627126 2.630432 0.563936
1.613832 2.918634 -0.077606
1.310906 2.648925 -0.051589
0.801447 1.286077 -0.044101
0.420019 0.753697 -0.241540
1.622218 2.603165 -0.613455
1.621993 2.910561 0.000000
0.492550 0.883850 -0.157417
0.499466 0.801491 -0.120207
1.309309 2.645698 0.017157
0.829274 1.330731 -0.009113
0.569176 1.021348 -0.125946
0.741955 1.070321 -0.121571
1.471663 2.640803 0.070348
0.895523 1.291854 0.018300
0.736180 1.321027 -0.105751
0.714787 1.147015 -0.110330
1.307004 2.641040 0.085759
1.622365 2.603400 0.053544
0.656866 1.327318 -0.094913
0.712070 1.027211 -0.072790
1.471515 2.640537 0.176045
1.625495 2.608422 0.125216
0.758574 1.361212 -0.072589
0.777448 1.247567 -0.077039
1.474617 2.646104 0.371945
1.629883 2.615464 0.251579
0.732121 1.479385 -0.067248
1.794631 2.588881 -0.110003
1.459518 2.619010 0.803374
1.635839 2.625022 0.563936
1.615714 2.899294 -0.077234
0.808282 1.286517 -0.044218
0.413342 0.735363 -0.236148
1.627575 2.590559 -0.611886
1.632649 2.904597 0.000000
0.497723 0.885484 -0.158032
0.519288 0.826534 -0.124248
1.326146 2.655196 0.017250
0.821378 1.307361 -0.008974
0.570966 1.015789 -0.125518
0.739030 1.057800 -0.120456
1.481331 2.635391 0.070348
0.868182 1.242661 0.017648
0.739061 1.314842 -0.105472
0.723228 1.151139 -0.110981
1.320247 2.643386 0.085992
1.640406 2.610982 0.053823
0.640323 1.282048 -0.091843
0.713543 1.021321 -0.072558
1.485096 2.642088 0.176510
1.639296 2.609215 0.125541
0.755726 1.344490 -0.071844
0.769265 1.224415 -0.075782
1.486251 2.644143 0.372433
1.641579 2.612849 0.251904
0.726824 1.455239 -0.066271
1.472893 2.620379 0.805445
1.643356 2.615677 0.563218
1.638086 2.914268 -0.077792
0.808490 1.276931 -0.043985
1.475612 2.603893 -0.837840
1.640805 2.591490 -0.613455
1.638835 2.891919 0.000000
1.913086 2.718011 -0.038695
0.496914 0.876864 -0.156802
0.517925 0.818011 -0.123238
1.335407 2.650550 0.017250
0.823797 1.301107 -0.008950
0.574509 1.013789 -0.125518
0.793149 1.126864 -0.128635
1.494465 2.637162 0.070534
0.710203 1.253237 -0.100728
0.671793 1.061030 -0.102519
1.331266 2.642332 0.086108
1.651650 2.608619 0.053893
0.668144 1.326149 -0.095169
0.763072 1.084133 -0.077209
1.496279 2.640362 0.176743
1.650532 2.606854 0.125704
0.764355 1.348796 -0.072216
0.737209 1.164349 -0.072224
1.495472 2.638938 0.372433
1.654955 2.613839 0.252555
0.731899 1.452693 -0.066271
1.836120 2.608662 -0.111399
1.485842 2.621945 0.807515
1.654582 2.613249 0.563936
1.642335 2.898095 -0.077513
0.766455 1.508157 -0.029529
0.804340 1.260619 -0.043519
1.498067 2.622139 -0.845388
1.654872 2.896601 0.000000
0.925420 1.305086 -0.018626
0.494089 0.864828 -0.154957
0.527180 0.826234 -0.124753
1.346462 2.649439 0.017273
0.834788 1.308339 -0.009020
0.564234 0.987606 -0.122519
0.787863 1.111094 -0.127147
1.505645 2.635402 0.070627
0.722490 1.264609 -0.101844
0.664770 1.041874 -0.100892
1.342292 2.641233 0.086224
1.660745 2.602838 0.053893
0.660109 1.298898 -0.093378
0.773781 1.091235 -0.077906
1.505486 2.635123 0.176743
1.661771 2.604446 0.125867
0.759148 1.328773 -0.071286
0.676810 1.060745 -0.065943
1.508613 2.640597 0.373408
1.664068 2.608047 0.252555
0.738776 1.453692 -0.066434
1.498818 2.623452 0.809586
1.670043 2.617410 0.566088
1.662359 2.909706 -0.077978
0.773013 1.509301 -0.029599
0.803974 1.251358 -0.043287
1.685518 2.623449 -0.623653
1.693892 2.943390 0.000000
0.876069 1.227297 -0.017555
0.494833 0.859846 -0.154342
0.529773 0.824573 -0.124753
1.358427 2.652316 0.017320
0.832408 1.295614 -0.008950
0.579236 1.006510 -0.125089
0.800605 1.121579 -0.128635
1.517907 2.637590 0.070813
0.764527 1.071037 0.015320
0.829956 1.442172 -0.116354
0.668040 1.039781 -0.100892
1.350584 2.637003 0.086224
1.673239 2.604337 0.054033
0.686023 1.339453 -0.096448
0.754006 1.056297 -0.075581
1.515749 2.633841 0.176975
1.674267 2.605937 0.126193
0.763319 1.326381 -0.071286
0.693094 1.078777 -0.067199
1.518882 2.639285 0.373895
1.676565 2.609514 0.253206
0.726942 1.419348 -0.064969
1.505126 2.615381 0.808551
1.682513 2.618772 0.567523
1.689444 2.935662 -0.078816
0.778540 1.506458 -0.029599
0.806382 1.245046 -0.043170
0.406040 0.699611 -0.226443
1.377420 2.126724 -0.506767
1.712701 2.951000 0.000000
0.826841 1.149399 -0.016484
0.492029 0.847771 -0.152498
0.539263 0.832617 -0.126268
1.369976 2.650872 0.017343
0.839326 1.295912 -0.008974
0.578929 0.997501 -0.124233
0.811688 1.128336 -0.129750
1.529572 2.635467 0.070906
0.827224 1.425316 -0.115238
0.678348 1.047364 -0.101868
1.363912 2.639139 0.086457
1.682773 2.598186 0.054033
0.701924 1.358207 -0.097983
0.762536 1.060009 -0.076046
1.527398 2.631721 0.177208
1.683807 2.599783 0.126193
0.760153 1.309751 -0.070541
0.723102 1.116462 -0.069711
1.530539 2.637133 0.374383
1.686118 2.603351 0.253206
0.733975 1.420225 -0.065132
1.516642 2.613189 0.809586
1.694239 2.615890 0.568241
1.682128 2.898322 -0.077978
0.777988 1.493227 -0.029390
0.797398 1.222273 -0.042472
0.427803 0.731511 -0.237226
1.708079 2.618189 -0.625222
1.714399 2.931493 0.000000
0.739135 1.020326 -0.014668
0.496833 0.849547 -0.153113
0.544189 0.834148 -0.126773
0.832691 1.276371 -0.008857
0.588257 1.005875 -0.125518
0.808416 1.115963 -0.128635
1.536284 2.626929 0.070813
0.788411 1.088347 0.015646
0.831946 1.422565 -0.115238
0.712314 1.091855 -0.106425
1.374503 2.638148 0.086573
1.697935 2.602641 0.054242
0.702735 1.348792 -0.097471
0.756676 1.044539 -0.075116
1.536116 2.626642 0.177208
1.696786 2.600880 0.126518
0.758440 1.296876 -0.069983
0.766086 1.174278 -0.073480
1.543284 2.638898 0.375358
1.696920 2.601085 0.253532
1.514295 2.906456 -0.133520
0.743426 1.026248 -0.044253
1.533100 2.621486 0.813727
1.707205 2.616849 0.569676
1.711917 2.927248 -0.078909
0.785316 1.493906 -0.029460
0.801872 1.219343 -0.042472
1.727164 2.928636 0.000000
0.877294 1.201748 -0.017322
0.493920 0.837507 -0.151268
0.549423 0.835463 -0.127278
0.830770 1.263285 -0.008788
0.593960 1.007137 -0.125946
0.812501 1.112992 -0.128635
1.547933 2.624725 0.070906
0.841919 1.153291 0.016623
1.387884 2.640171 0.086806
1.711857 2.603084 0.054382
0.720676 1.370941 -0.099262
1.549789 2.627874 0.177673
1.708503 2.597983 0.126681
0.765218 1.297529 -0.070169
0.772580 1.174800 -0.073689
1.554962 2.636644 0.375845
1.708632 2.598179 0.253857
1.532376 2.915037 -0.134171
1.548586 2.625834 0.816833
1.721108 2.617151 0.571110
1.714508 2.907176 -0.078536
1.535588 2.897774 -0.057244
0.794872 1.200010 -0.041890
0.922863 1.553043 -0.505723
1.738910 2.926331 0.000000
0.769931 1.047367 -0.015133
0.496694 0.835864 -0.151268
0.560956 0.846869 -0.129299
0.809102 1.526839 0.010043
0.848208 1.280531 -0.008927
0.583075 0.981230 -0.122947
0.783162 1.065367 -0.123430
1.560714 2.626453 0.071092
0.845739 1.150492 0.016623
0.768475 1.293231 -0.105193
1.396632 2.635553 0.086806
1.720481 2.597392 0.054382
0.717742 1.354434 -0.098239
0.766315 1.042449 -0.075348
1.560536 2.626153 0.177905
1.723731 2.602298 0.127170
0.763393 1.284679 -0.069611
1.569781 2.641712 0.377308
1.717239 2.592498 0.253857
1.527063 2.881687 -0.132869
0.771882 1.050021 -0.045509
1.547417 2.604076 0.811657
1.734124 2.617990 0.572545
0.796700 1.340729 -0.036291
1.553234 2.906505 -0.057523
0.761323 1.140692 -0.039912
1.735403 2.600158 -0.625222
1.747059 2.916811 0.000000
0.497578 0.830734 -0.150653
0.557300 0.835004 -0.127783
0.808772 1.513422 0.009973
0.819366 1.227657 -0.008578
0.606932 1.013306 -0.127231
0.786877 1.062626 -0.123430
1.576038 2.631280 0.071371
0.783103 1.057530 0.015320
0.717070 1.074387 -0.105448
1.407708 2.634188 0.086923
1.745079 2.614656 0.054870
0.716821 1.341359 -0.097471
0.762821 1.030140 -0.074651
1.571746 2.624115 0.178138
1.732805 2.596265 0.127170
0.771980 1.288862 -0.069983
0.729557 1.093096 -0.068874
1.576954 2.632810 0.376820
1.730705 2.593120 0.254508
1.555951 2.911588 -0.134497
0.766027 1.034469 -0.044951
1.560469 2.605287 0.813727
1.743253 2.611920 0.572545
0.786991 1.313925 -0.035639
1.563369 2.901067 -0.057523
0.745219 1.108167 -0.038865
1.562773 2.588597 -0.846467
1.748844 2.600595 -0.626791
0.855874 1.417680 0.000000
0.777223 1.041967 -0.015133
0.502517 0.832376 -0.151268
0.564640 0.839640 -0.128794
0.817844 1.517632 0.010020
0.785699 1.168364 -0.008183
0.608409 1.007777 -0.126803
0.823918 1.104567 -0.128635
1.585211 2.625764 0.071371
0.667216 0.894488 0.012991
0.760986 1.260506 -0.102961
0.700792 1.042104 -0.102519
1.422583 2.639818 0.087272
1.760889 2.618506 0.055080
0.719604 1.335335 -0.097215
1.580894 2.618613 0.178138
1.744085 2.593519 0.127332
0.759953 1.258795 -0.068494
0.760116 1.130320 -0.071386
1.592288 2.637487 0.378282
1.746419 2.596989 0.255484
1.575583 2.923732 -0.135311
0.774412 1.038198 -0.045230
1.569552 2.599825 0.813727
1.754554 2.609085 0.573263
0.783305 1.297477 -0.035267
1.576799 2.902894 -0.057663
0.728710 1.075896 -0.037818
1.585361 2.606437 -0.854015
1.753060 2.588286 -0.625222
0.858492 1.411416 0.000000
0.797489 1.061770 -0.015459
0.501167 0.823952 -0.150038
0.576322 0.850904 -0.130814
1.573194 2.896258 0.019156
0.820973 1.212117 -0.008509
0.605548 0.995561 -0.125518
0.803658 1.069984 -0.124917
1.593911 2.620492 0.071371
0.713187 1.052977 -0.103821
1.435147 2.642113 0.087504
1.776291 2.622586 0.055289
0.714502 1.315402 -0.095936
1.591645 2.616768 0.178371
1.752677 2.587720 0.127332
0.778658 1.280164 -0.069797
0.922905 1.362612 -0.086250
1.603090 2.635584 0.378770
1.755022 2.591183 0.255484
1.585270 2.918490 -0.135311
0.770649 1.026035 -0.044811
1.582181 2.601208 0.815798
1.772024 2.616285 0.576133
0.787604 1.294872 -0.035267
1.583584 2.890082 -0.057523
0.741665 1.086427 -0.038283
1.590876 2.594042 -0.851858
0.863659 1.408260 0.000000
0.504184 0.822109 -0.150038
0.577199 0.845509 -0.130309
0.824575 1.504870 0.009973
0.816389 1.195886 -0.008416
0.609193 0.993335 -0.125518
1.607685 2.621451 0.071557
1.446742 2.640342 0.087621
1.783636 2.612755 0.055219
0.728909 1.330279 -0.097215
1.605400 2.617725 0.178836
1.768909 2.591182 0.127821
0.783344 1.277302 -0.069797
0.763484 1.118388 -0.070968
1.608587 2.622922 0.377795
1.771250 2.594611 0.256461
1.605558 2.930186 -0.136125
1.597763 2.605273 0.818903
1.783819 2.613023 0.576850
0.800707 1.305612 -0.035639
1.608627 2.912822 -0.058082
0.761121 1.107024 -0.039098
1.788864 2.601841 -0.631498
0.855710 1.384971 0.000000
0.504830 0.817070 -0.149423
0.564264 0.820702 -0.126773
1.597243 2.892207 0.019203
0.809020 1.176691 -0.008299
0.629207 1.018375 -0.128945
1.618472 2.619507 0.071650
0.704710 1.024976 -0.101543
1.455490 2.635529 0.087621
1.826279 2.656260 0.056267
0.744896 1.348820 -0.098750
0.764849 1.003644 -0.073488
1.620369 2.622578 0.179533
1.779757 2.588595 0.127984
0.766574 1.240705 -0.067935
0.923343 1.342970 -0.085412
1.625624 2.631083 0.379745
1.779845 2.588723 0.256461
1.611403 2.917848 -0.135799
1.608425 2.603246 0.819939
1.792475 2.607093 0.576850
0.796624 1.289342 -0.035267
1.627078 2.920881 -0.058361
0.853989 1.232396 -0.043636
1.572288 2.524021 -0.832449
1.454350 2.098781 -0.510689
0.856551 1.375035 0.000000
0.791696 1.031013 -0.015133
0.503642 0.808505 -0.148193
0.562748 0.812105 -0.125763
1.617566 2.903805 0.019319
0.806493 1.163855 -0.008230
0.614011 0.985681 -0.125089
0.834409 1.086637 -0.127891
1.634406 2.623739 0.071930
0.724357 1.045325 -0.103821
1.469033 2.637162 0.087853
1.822336 2.629824 0.055848
0.732351 1.314695 -0.096448
0.768522 1.000834 -0.073488
1.627860 2.613231 0.179301
1.793786 2.588624 0.128309
0.775342 1.244670 -0.068308
0.812227 1.172129 -0.074736
1.639456 2.631846 0.380720
1.791593 2.585458 0.256786
0.756585 1.358199 -0.063341
0.771790 1.005090 -0.044253
1.622043 2.603892 0.822009
1.810984 2.613443 0.579720
0.790773 1.269442 -0.034802
1.643139 2.925645 -0.058570
1.591329 2.534829 -0.837840
1.454930 2.084043 -0.508336
0.861345 1.372037 0.000000
0.775714 1.002933 -0.014761
0.506461 0.806742 -0.148193
0.586022 0.839418 -0.130309
1.625733 2.894654 0.019296
0.808261 1.157753 -0.008206
0.608989 0.970059 -0.123376
0.828451 1.071117 -0.126404
1.647806 2.624792 0.072116
0.682726 0.882707 0.012991
0.765896 1.219997 -0.100728
0.723437 1.036252 -0.103170
1.480186 2.635505 0.087970
0.872254 1.249417 0.026597
0.740845 1.319092 -0.096960
1.639094 2.610915 0.179533
1.809674 2.592178 0.128798
0.777557 1.238572 -0.068122
1.822413 2.610425 -0.166847
1.652854 2.632833 0.381695
1.807452 2.588996 0.257763
0.769150 1.369488 -0.063992
0.775294 1.002390 -0.044253
1.633175 2.601487 0.823045
1.826853 2.616786 0.581873
0.803704 1.280221 -0.035174
1.655311 2.923373 -0.058640
1.635177 2.584598 -0.856171
1.453170 2.066119 -0.505198
0.840465 1.328459 0.000000
0.675971 0.867698 -0.012805
0.505047 0.798289 -0.146963
0.577534 0.821139 -0.127783
1.641739 2.899404 0.019365
0.826104 1.174555 -0.008346
0.610245 0.964567 -0.122947
0.829737 1.065077 -0.126032
1.652682 2.612267 0.071930
0.650681 1.028481 -0.085103
0.740811 1.053286 -0.105123
1.493317 2.637281 0.088202
0.733644 1.295656 -0.095425
1.654603 2.615303 0.180231
1.832507 2.605461 0.129775
0.730605 1.154811 -0.063655
0.806601 1.146827 -0.073480
1.657788 2.620337 0.380720
1.816478 2.582671 0.257763
0.754232 1.332017 -0.062364
0.786158 1.009138 -0.044671
1.646378 2.602301 0.825115
1.835976 2.610394 0.581873
0.799616 1.263891 -0.034802
1.664997 2.917867 -0.058640
1.848818 2.610212 -0.093090
1.310437 2.056182 -0.682565
1.437343 2.029281 -0.497353
0.834118 1.308798 0.000000
0.505568 0.793276 -0.146349
0.589428 0.832171 -0.129804
1.665223 2.918262 0.019528
0.839242 1.184865 -0.008439
0.611303 0.959184 -0.122519
0.860303 1.096790 -0.130122
1.667784 2.616888 0.072209
0.671245 1.053237 -0.087335
0.864126 1.219997 -0.122047
1.504036 2.635787 0.088319
0.876115 1.236923 0.026458
0.735958 1.289749 -0.095169
1.665413 2.613168 0.180464
0.670007 1.051296 -0.058071
0.842724 1.189781 -0.076411
1.672871 2.624869 0.382182
1.834251 2.589646 0.259064
0.760627 1.332979 -0.062526
0.769763 0.981362 -0.043555
1.661228 2.606601 0.828221
1.846897 2.607502 0.582590
0.810251 1.271349 -0.035081
1.685143 2.929371 -0.058989
0.868576 1.217250 -0.043519
1.325932 2.064560 -0.686878
1.439861 2.017866 -0.495785
0.845165 1.315976 0.000000
0.510469 0.794833 -0.146963
0.576196 0.807499 -0.126268
1.673404 2.908965 0.019505
0.642586 1.000546 -0.128088
0.878939 1.112531 -0.132352
1.679069 2.614415 0.072302
0.685698 1.067675 -0.088730
1.511233 2.627055 0.088202
0.880427 1.233858 0.026458
0.744437 1.294093 -0.095680
1.678840 2.614059 0.180929
0.686628 1.069123 -0.059188
1.686313 2.625695 0.383157
1.845594 2.586473 0.259390
0.761289 1.323388 -0.062201
0.765749 0.969259 -0.043136
1.674492 2.607289 0.830292
1.860559 2.607445 0.584025
0.786591 1.224771 -0.033871
1.701378 2.933850 -0.059199
0.749132 1.042143 -0.037352
1.339410 2.069620 -0.690113
1.428581 1.987348 -0.489509
0.845408 1.306301 0.000000
0.506799 0.783091 -0.145119
0.597540 0.831258 -0.130309
1.685555 2.906565 0.019528
0.744767 1.036071 -0.007416
0.633110 0.978264 -0.125518
0.895217 1.125038 -0.134211
1.694703 2.618609 0.072581
0.641725 0.991576 -0.082592
0.909854 1.265729 -0.127254
1.526412 2.632140 0.088552
0.723657 1.006704 0.021641
0.744945 1.284580 -0.095169
1.687955 2.608183 0.180929
0.761997 1.177416 -0.065330
0.741427 1.031425 -0.066571
1.699783 2.626459 0.384132
1.859266 2.586489 0.260041
0.765904 1.320722 -0.062201
0.771617 0.969708 -0.043275
1.685683 2.604671 0.831327
1.876541 2.610520 0.586177
0.793034 1.225375 -0.033964
1.709588 2.924442 -0.059129
0.741039 1.023330 -0.036770
0.849962 1.303343 0.000000
0.507369 0.778007 -0.144504
0.598110 0.825954 -0.129804
0.837751 1.433067 0.009648
0.638693 0.979380 -0.125946
0.894156 1.115692 -0.133468
1.706016 2.616028 0.072674
0.656080 1.006042 -0.083987
0.918942 1.269004 -0.127905
1.537607 2.630249 0.088668
0.757660 1.046283 0.022549
0.743379 1.271634 -0.094401
1.699229 2.605621 0.181161
0.764179 1.055286 0.053082
0.750823 1.151322 -0.064027
0.740337 1.022361 -0.066153
1.713277 2.627162 0.385107
1.877635 2.592901 0.261343
0.754372 1.290438 -0.060898
0.772497 0.963890 -0.043136
1.698984 2.605246 0.833397
1.887948 2.607142 0.586895
0.801675 1.229299 -0.034150
1.719278 2.918756 -0.059129
0.753852 1.033790 -0.037236
1.334432 2.031480 -0.680408
1.446697 1.983917 -0.491078
0.849887 1.293830 0.000000
0.514287 0.782927 -0.145734
0.568115 0.779080 -0.122733
0.832349 1.413048 0.009532
0.765942 1.050369 -0.007555
0.657221 1.000525 -0.128945
0.895350 1.109620 -0.133096
1.712487 2.607014 0.072581
0.670367 1.020537 -0.085382
0.937239 1.285277 -0.129858
1.550380 2.632025 0.088901
0.745567 1.265722 -0.094146
1.712245 2.606646 0.181626
0.767675 1.052746 0.053082
0.794124 1.208938 -0.067377
0.753138 1.032810 -0.066990
1.724159 2.624783 0.385595
1.888572 2.589881 0.261668
0.762705 1.294816 -0.061224
0.793262 0.983100 -0.044113
1.709736 2.602826 0.834433
1.898902 2.604047 0.587612
0.807943 1.229976 -0.034243
1.737111 2.926795 -0.059408
1.343287 2.030257 -0.681487
1.443981 1.966463 -0.487940
0.840930 1.270989 0.000000
0.508156 0.768032 -0.143274
0.570695 0.777192 -0.122733
0.832946 1.403401 0.009485
0.767053 1.044600 -0.007532
0.656146 0.991706 -0.128088
0.891491 1.097372 -0.131981
1.725535 2.607991 0.072767
0.684756 1.034947 -0.086777
0.943856 1.285375 -0.130183
1.561140 2.630308 0.089017
0.752747 1.025116 0.022199
0.739573 1.246079 -0.092866
1.725286 2.607615 0.182091
0.764065 1.040530 0.052594
0.795923 1.202966 -0.067191
0.747101 1.017428 -0.066153
1.735044 2.622363 0.386082
1.901869 2.590031 0.262319
0.773114 1.302591 -0.061712
0.804079 0.989773 -0.044532
1.724753 2.606809 0.837538
1.912185 2.604079 0.589047
0.789951 1.193940 -0.033313
0.817434 1.365831 -0.027784
0.770564 1.041357 -0.037701
1.340034 2.009296 -0.676095
1.439515 1.945392 -0.484018
0.858900 1.287865 0.000000
0.508775 0.762876 -0.142659
0.542857 0.733629 -0.116167
1.733687 2.896778 0.019621
0.749464 1.012843 -0.007323
0.675224 1.012455 -0.131087
0.890463 1.087932 -0.131237
1.739522 2.608302 0.072953
0.690759 1.035749 -0.087056
0.939076 1.269087 -0.128881
1.570772 2.624567 0.089017
0.739847 0.999846 0.021711
0.752336 1.257060 -0.093890
1.741481 2.611239 0.182789
0.779761 1.053786 0.053408
1.733674 2.599534 -0.145549
0.750826 1.014682 -0.066153
1.749051 2.622591 0.387057
1.911351 2.583041 0.262319
0.784041 1.310036 -0.062201
0.772254 0.943510 -0.042577
1.736442 2.603683 0.838574
1.928741 2.606542 0.591200
0.721103 1.081248 -0.030242
0.815762 1.352839 -0.027575
0.766846 1.029179 -0.037352
1.342393 1.998447 -0.673938
1.445957 1.940608 -0.484018
0.845322 1.258447 0.000000
0.511302 0.761185 -0.142659
0.557141 0.747734 -0.118692
0.846855 1.404403 0.009532
0.755208 1.013559 -0.007346
0.663054 0.987101 -0.128088
0.891532 1.081901 -0.130865
1.752620 2.609159 0.073139
0.936132 1.256376 -0.127905
1.583594 2.626193 0.089250
0.735989 0.987766 0.021501
0.746193 1.237467 -0.092611
1.752356 2.608766 0.183022
0.735491 0.987098 0.050151
0.816239 1.095469 -0.071596
1.762165 2.623369 0.388032
1.927051 2.586281 0.263295
0.775997 1.286894 -0.061224
0.767751 0.931689 -0.042159
1.747219 2.601119 0.839609
1.939723 2.603288 0.591917
0.804956 1.198354 -0.033592
0.818637 1.346422 -0.027505
0.765812 1.019966 -0.037120
1.347550 1.990323 -0.672860
1.448350 1.929022 -0.482449
0.854414 1.261964 0.000000
0.574852 0.692413 -0.010477
0.518520 0.765852 -0.143889
0.545583 0.726648 -0.115662
0.839529 1.380782 0.009392
0.758918 1.010785 -0.007346
0.668897 0.987957 -0.128516
0.892948 1.075561 -0.130493
1.766656 2.609340 0.073325
0.926369 1.233808 -0.125952
1.597364 2.627203 0.089482
0.737204 0.981863 0.021432
0.754871 1.241545 -0.093122
1.766384 2.608938 0.183487
0.727106 0.968415 0.049337
1.767460 2.610528 -0.146852
0.762688 1.015805 -0.066571
1.773995 2.620180 0.388519
1.941305 2.585576 0.263946
0.774480 1.273796 -0.060735
0.809464 0.975004 -0.044253
1.761074 2.601096 0.841680
1.953977 2.602454 0.593352
0.941619 1.390765 -0.039082
0.810563 1.323237 -0.027086
1.360653 1.995391 -0.676095
1.435816 1.899178 -0.476173
0.854087 1.252514 0.000000
0.512150 0.751066 -0.141429
0.538418 0.712174 -0.113641
0.831567 1.357525 0.009253
0.757442 1.001881 -0.007300
0.667689 0.979162 -0.127660
0.888847 1.063426 -0.129378
1.773046 2.600163 0.073232
0.710380 1.041769 -0.088172
1.606068 2.621891 0.089482
0.752729 1.228823 -0.092355
1.775026 2.603066 0.183487
0.754416 0.997879 0.050966
0.773279 1.022829 -0.067199
1.787147 2.620842 0.389494
1.957082 2.588664 0.264923
0.778700 1.271221 -0.060735
0.789620 0.944709 -0.042996
1.771867 2.598433 0.842715
1.964971 2.599099 0.594070
0.732198 1.073765 -0.030242
0.809103 1.310050 -0.026877
1.346140 1.958646 -0.665312
1.442767 1.893903 -0.476173
0.854140 1.242782 0.000000
0.514900 0.749184 -0.141429
0.550642 0.722822 -0.115662
0.849148 1.374888 0.009392
0.741717 0.973643 -0.007114
0.671273 0.976709 -0.127660
0.887608 1.054069 -0.128635
1.789359 2.603534 0.073512
0.736827 0.875011 0.013317
0.698373 1.016139 -0.086219
0.802084 1.052886 -0.108052
1.617767 2.619390 0.089599
0.729499 0.957604 0.021013
0.753032 1.219264 -0.091843
0.853949 1.014097 -0.077209
1.789078 2.603125 0.183952
0.729005 0.956956 0.049012
0.862268 1.254608 -0.070913
1.796741 2.614275 0.389494
1.971388 2.587817 0.265574
0.777053 1.258157 -0.060247
0.793077 0.941809 -0.042996
1.785755 2.598290 0.844785
1.979252 2.598141 0.595505
0.817898 1.314008 -0.027016
0.769149 1.002374 -0.036770
1.346390 1.944434 -0.662077
1.442206 1.879519 -0.473819
0.874414 1.262813 0.000000
0.517512 0.747382 -0.141429
0.562825 0.733487 -0.117682
0.841260 1.351540 0.009253
0.769462 1.002782 -0.007346
0.685999 0.990708 -0.129802
0.883555 1.041851 -0.127519
1.800714 2.600560 0.073605
0.699644 1.010414 -0.085940
0.808182 1.053243 -0.108377
1.629015 2.617120 0.089715
0.740141 0.964571 0.021222
0.729861 1.172571 -0.088517
0.865232 1.020247 -0.077906
1.809521 2.613279 0.185115
0.722609 0.941723 0.048360
0.852995 1.231880 -0.069797
1.810377 2.614515 0.390469
1.980410 2.580920 0.265574
0.775105 1.245257 -0.059758
0.762747 0.899400 -0.041181
1.801413 2.601570 0.847891
1.990706 2.594337 0.596222
1.796161 2.593984 -0.073418
0.805029 1.284322 -0.026458
0.782070 1.012611 -0.037236
1.352492 1.940195 -0.662077
1.443309 1.868771 -0.472250
0.953862 1.368346 0.000000
0.519857 0.745752 -0.141429
0.601508 0.778822 -0.125258
0.841253 1.342112 0.009206
0.760383 0.984531 -0.007230
0.689107 0.988548 -0.129802
0.902336 1.057247 -0.129750
1.808874 2.594890 0.073605
0.981498 1.149999 0.017601
0.711942 1.021305 -0.087056
0.806613 1.044388 -0.107727
1.641475 2.618766 0.089948
0.738279 0.955910 0.021083
0.665699 1.062039 -0.080331
0.896949 1.050935 -0.080464
1.806303 2.591202 0.183952
0.742665 0.961590 0.049500
1.821114 2.612448 -0.148341
0.800862 1.036942 -0.068665
1.823122 2.615329 0.391444
1.998255 2.587306 0.266876
0.755664 1.205566 -0.057967
0.822662 0.963895 -0.044253
1.811787 2.599068 0.848927
2.001251 2.591185 0.596940
0.824459 1.305174 -0.026947
0.785600 1.009875 -0.037236
1.330477 1.894483 -0.648059
0.958632 1.365009 0.000000
0.522457 0.743933 -0.141429
0.601786 0.773585 -0.124753
0.839523 1.329023 0.009136
0.669697 0.953591 -0.125518
0.903425 1.051070 -0.129378
0.774326 0.900873 0.013830
0.830167 1.182085 -0.101007
0.883690 1.135968 -0.117490
1.648470 2.609640 0.089832
0.734244 0.943857 0.020873
0.726962 1.150831 -0.087238
0.916229 1.065968 -0.081860
0.731293 0.940064 0.048523
0.851960 1.213117 -0.069052
0.848625 1.090892 -0.072433
1.839085 2.618696 0.392907
2.012170 2.586609 0.267526
0.725716 1.148857 -0.055362
0.786935 0.915543 -0.042159
1.827509 2.602214 0.852032
2.010283 2.584184 0.596940
0.814421 1.278387 -0.026458
1.315482 1.857924 -0.637276
1.435186 1.830362 -0.465190
0.970800 1.371112 0.000000
0.523025 0.738696 -0.140814
0.597407 0.761902 -0.123238
0.851068 1.335910 0.009206
0.947751 1.208712 -0.008927
0.680248 0.960750 -0.126803
0.904846 1.044584 -0.129006
0.764685 0.882777 0.013597
0.832393 1.175632 -0.100728
0.920025 1.173352 -0.121721
1.667071 2.616780 0.090297
0.747733 0.953620 0.021152
0.759258 1.191798 -0.090564
0.907243 1.047350 -0.080697
0.739829 0.943540 0.048849
0.928188 1.310928 -0.074822
0.741893 0.946172 -0.063013
1.851420 2.614856 0.393394
2.024546 2.582002 0.267852
0.719384 1.129208 -0.054548
0.923930 1.066615 -0.049278
1.839719 2.598331 0.853068
2.025047 2.582640 0.598375
1.825535 2.578298 -0.073512
0.821040 1.278902 -0.026528
0.770679 0.975849 -0.036189
1.324197 1.856456 -0.638354
1.456152 1.843809 -0.469897
0.845503 1.185352 0.000000
0.523306 0.733648 -0.140199
0.590226 0.747355 -0.121217
0.855726 1.332931 0.009206
0.951964 1.205396 -0.008927
0.692836 0.971320 -0.128516
0.908487 1.041419 -0.129006
1.864713 2.614232 0.074721
1.012289 1.160409 0.017927
0.915275 1.283169 -0.110215
1.678356 2.614309 0.090413
0.733706 0.929034 0.020664
0.696561 1.085006 -0.082633
0.934519 1.071259 -0.082790
0.765231 1.072815 0.076744
0.718348 0.909586 0.047220
0.860830 1.206839 -0.069052
1.860536 2.608377 0.393394
2.036018 2.578047 0.268177
0.682298 1.062788 -0.051454
0.812021 0.930837 -0.043136
1.857753 2.604475 0.857209
2.036489 2.578643 0.599092
0.712910 0.999463 -0.028567
0.818540 1.266240 -0.026318
0.768765 0.967163 -0.035956
1.325529 1.846030 -0.636198
2.059892 2.591497 -0.662092
0.751236 1.046226 0.000000
0.518692 0.722369 -0.138355
0.548128 0.689585 -0.112126
0.849052 1.313440 0.009090
0.764099 0.961294 -0.007137
0.698203 0.972369 -0.128945
0.903871 1.029581 -0.127891
0.767884 0.874681 0.013550
0.893701 1.244634 -0.107146
1.684389 2.605666 0.090297
0.704270 0.886024 0.019756
0.671794 1.039232 -0.079307
0.742978 1.034726 0.074185
0.765966 0.963642 0.050151
0.755083 1.051584 -0.060304
1.875668 2.612194 0.394857
2.049068 2.577881 0.268828
0.746385 1.154620 -0.056013
0.899336 1.024415 -0.047603
1.865926 2.598627 0.857209
2.054374 2.584555 0.601962
0.720711 1.003716 -0.028753
0.810074 1.243127 -0.025899
0.767305 0.958097 -0.035723
2.066924 2.580869 -0.661308
0.778514 1.075872 0.000000
0.521336 0.720463 -0.138355
0.540730 0.675183 -0.110106
0.860411 1.320373 0.009160
0.960147 1.198889 -0.008927
0.690105 0.953694 -0.126803
0.915554 1.035211 -0.129006
0.736106 1.017266 0.029219
0.839776 1.160534 -0.100170
0.951995 1.188711 -0.124325
1.698294 2.606175 0.090530
0.732513 0.914654 0.020454
0.714827 1.096962 -0.083912
0.739742 1.022290 0.073488
0.824456 1.029459 0.053734
1.889884 2.611735 0.395832
2.060994 2.573465 0.269154
0.765886 1.175316 -0.057153
0.783909 0.886361 -0.041321
1.875437 2.591770 0.857209
2.068752 2.583152 0.603397
0.743139 1.026985 -0.029498
0.818582 1.247121 -0.026039
0.762949 0.946210 -0.035374
1.333848 1.830505 -0.634041
2.060699 2.555680 -0.656601
0.737320 1.011861 0.000000
0.528378 0.725119 -0.139585
0.557910 0.691920 -0.113136
0.847226 1.290761 0.008974
0.964117 1.195698 -0.008927
0.697948 0.957829 -0.127660
0.908389 1.020271 -0.127519
0.751251 1.030979 0.029684
0.860070 1.180316 -0.102123
0.960937 1.191754 -0.124976
1.711315 2.607213 0.090762
0.770687 0.955806 0.021432
0.711890 1.084574 -0.083145
0.881586 0.990166 -0.077209
0.721963 0.990786 0.071395
0.832883 1.032941 0.054059
0.752994 1.033370 -0.059560
1.898535 2.605453 0.395832
2.074523 2.572823 0.269805
0.789517 1.202841 -0.058618
0.832035 0.934512 -0.043694
1.888573 2.591782 0.859279
2.077308 2.576277 0.603397
0.818734 1.237441 -0.025899
0.773976 0.952717 -0.035723
1.351947 1.841127 -0.639433
2.084893 2.566375 -0.661308
0.736289 1.002703 0.000000
0.524014 0.713620 -0.137740
0.590466 0.726827 -0.119197
0.851951 1.287647 0.008974
0.809600 0.996568 -0.007462
0.701454 0.955264 -0.127660
0.925419 1.031758 -0.129378
0.871476 1.186805 -0.102961
0.960271 1.182035 -0.124325
1.725273 2.607593 0.090995
0.751102 1.135223 -0.087238
0.909206 1.013682 -0.079302
0.744498 1.013882 0.073255
0.826583 1.017473 0.053408
0.770966 1.049927 -0.060677
2.077931 2.557806 -0.172709
1.915122 2.608077 0.397294
2.083939 2.565202 0.269805
0.800755 0.892770 -0.041879
1.902634 2.591070 0.861350
2.094180 2.577808 0.605549
0.752658 1.024995 -0.029591
0.825051 1.238047 -0.025969
0.772068 0.943955 -0.035490
1.364916 1.845925 -0.642668
2.098359 2.565519 -0.662876
0.526378 0.711878 -0.137740
0.592873 0.724865 -0.119197
0.858435 1.288143 0.008997
0.785044 0.959820 -0.007207
0.714076 0.965723 -0.129373
0.915490 1.013904 -0.127519
0.925227 1.251285 -0.108820
1.740563 2.611838 0.091344
0.749489 0.916349 0.020664
0.688453 1.033072 -0.079563
0.912563 1.010662 -0.079302
0.743108 1.004986 0.072790
0.751512 0.918823 0.048360
0.762565 1.031300 -0.059746
2.101577 2.569453 -0.173965
1.926121 2.604904 0.397782
2.100007 2.567534 0.270781
1.726558 2.590823 -0.126844
0.784958 0.869340 -0.040902
1.915811 2.590960 0.863420
2.110192 2.579987 0.607702
0.756053 1.022493 -0.029591
0.764712 1.138870 -0.023945
0.777901 0.944341 -0.035607
1.364448 1.831882 -0.639433
2.117276 2.570289 -0.666014
0.521776 0.700527 -0.135895
0.587831 0.713603 -0.117682
0.856237 1.275176 0.008927
0.976586 1.185536 -0.008927
0.715067 0.960036 -0.128945
0.897589 0.987129 -0.124545
0.728564 0.978156 0.028381
0.788415 0.867064 0.013643
0.934356 1.254448 -0.109378
0.958156 1.163163 -0.123023
1.747440 2.602427 0.091228
0.729797 0.885945 0.020035
0.749911 1.116828 -0.086215
0.746611 1.002386 0.072790
0.769962 0.934703 0.049337
0.754227 1.012610 -0.058815
2.105453 2.555936 -0.173546
1.937573 2.601349 0.398269
2.111491 2.563266 0.271106
1.748959 2.604689 -0.127821
0.798745 0.878425 -0.041461
1.924843 2.584257 0.863420
2.126690 2.581717 0.609854
0.750063 1.007020 -0.029219
0.809230 1.195678 -0.025201
0.781356 0.941483 -0.035607
1.375777 1.833030 -0.641589
2.124177 2.559493 -0.665230
0.782766 1.042926 0.000000
0.526713 0.701771 -0.136510
0.587908 0.708391 -0.117177
0.863147 1.275342 0.008950
0.789338 0.951100 -0.007184
0.716194 0.954228 -0.128516
0.882369 0.963275 -0.121943
0.734545 0.978678 0.028474
0.791587 0.864169 0.013643
0.938947 1.251015 -0.109378
0.967504 1.165779 -0.123674
1.761448 2.602628 0.091461
0.748364 0.901730 0.020454
0.711489 1.051261 -0.081354
0.903692 1.204043 0.087674
0.735096 0.885742 0.046895
0.774722 1.032209 -0.060118
2.119908 2.554350 -0.173965
1.951861 2.600581 0.399244
2.125963 2.561646 0.271757
1.760733 2.601572 -0.127984
0.853263 0.931500 -0.044113
1.936620 2.580275 0.864456
2.143677 2.582990 0.612007
0.763438 1.120419 -0.023665
0.776621 0.929817 -0.035258
1.379208 1.825625 -0.640511
0.894541 1.184083 0.000000
0.528915 0.700113 -0.136510
0.590131 0.706540 -0.117177
0.858140 1.259402 0.008857
0.746167 0.893356 -0.006765
0.711996 0.942453 -0.127231
0.877293 0.951713 -0.120827
0.735205 0.973174 0.028381
0.933252 1.235324 -0.108262
2.157002 2.582492 -0.274686
1.778622 2.610297 0.091926
0.776832 0.930069 0.021152
0.717036 1.052319 -0.081610
0.900249 1.191639 0.086976
0.748123 0.895698 0.047546
0.942329 1.128213 -0.077039
1.962415 2.597603 0.399731
2.141668 2.564133 0.272734
1.771149 2.599330 -0.128147
0.804706 0.872968 -0.041461
1.949375 2.580343 0.866526
2.159350 2.585303 0.614159
1.876486 2.733370 -0.057872
0.792731 0.942400 -0.035840
1.390237 1.826931 -0.642668
2.151205 2.557355 -0.668368
0.763020 1.002697 0.000000
0.528962 0.695117 -0.135895
0.600256 0.713586 -0.118692
0.867058 1.262994 0.008904
0.749281 0.890746 -0.006765
0.717690 0.943127 -0.127660
0.861643 0.928213 -0.118225
0.745862 0.980149 0.028660
0.884397 1.162200 -0.102123
2.168570 2.577998 -0.275012
1.789985 2.607370 0.092042
0.780073 0.927352 0.021152
0.704890 1.026773 -0.079819
0.795584 1.045489 0.076511
0.743527 0.883906 0.047058
0.781551 1.027048 -0.060118
1.092829 1.299157 -0.088971
1.976278 2.597057 0.400706
2.155738 2.562744 0.273385
0.855044 1.245494 -0.061549
0.813187 0.876014 -0.041740
1.963050 2.579673 0.868597
2.170894 2.580762 0.614876
0.750706 0.986514 -0.028846
0.788263 0.930474 -0.035490
1.413009 1.843467 -0.650216
2.172796 2.564794 -0.672290
0.737315 0.961930 0.000000
0.521768 0.680718 -0.133435
0.610438 0.720569 -0.120207
0.848709 1.227063 0.008671
0.775655 0.915593 -0.006974
0.723397 0.943772 -0.128088
0.843120 0.901924 -0.115251
0.749279 0.977539 0.028660
0.808343 1.054596 -0.092916
1.794528 2.594528 0.091810
0.765210 0.903262 0.020664
0.858339 1.240986 -0.096704
0.921708 0.985992 -0.078604
0.770078 1.004674 0.073720
1.990783 2.597253 -0.152436
1.099940 1.298382 -0.089180
1.987747 2.593293 0.401194
2.174979 2.567371 0.274686
1.793800 2.593475 -0.128472
0.827160 0.884851 -0.042298
1.974393 2.575871 0.869632
2.192608 2.588180 0.618464
0.759010 0.990234 -0.029032
1.817781 2.608638 -0.055499
0.786315 0.921634 -0.035258
1.400603 1.814132 -0.641589
2.174098 2.548243 -0.669937
0.767557 0.994179 0.000000
0.538633 0.697664 -0.137125
0.602648 0.706359 -0.118187
0.765866 0.897665 -0.006858
0.726687 0.941242 -0.128088
0.865372 0.919275 -0.117853
0.735581 0.952761 0.028009
0.770565 0.998074 -0.088172
0.991047 1.161599 -0.124650
0.750187 0.879288 0.020175
0.741856 0.960889 0.070697
0.760056 0.890855 0.047709
0.866840 1.122775 -0.066074
0.907424 1.063585 -0.073270
2.001640 2.592624 0.402169
2.183927 2.559763 0.274686
0.811063 0.861583 -0.041321
1.990456 2.578139 0.872738
2.206737 2.586498 0.619899
0.774681 1.003406 -0.029498
1.826875 2.602278 -0.055499
0.797345 0.927982 -0.035607
1.411656 1.815313 -0.643746
2.195760 2.555514 -0.673859
0.812766 1.045173 0.000000
0.519228 0.667699 -0.131591
0.597352 0.695222 -0.116672
0.866447 1.234203 0.008764
0.755961 0.879817 -0.006742
0.720202 0.926141 -0.126375
0.865836 0.913358 -0.117481
0.903375 1.161691 0.034243
0.896519 1.152875 -0.102123
1.065246 1.239776 -0.133438
1.821785 2.595028 0.092275
0.753252 0.876665 0.020175
0.777531 1.107547 -0.086726
0.767267 0.986664 0.072790
0.773579 0.900323 0.048360
0.995848 1.280607 -0.075567
2.020426 2.598158 0.404119
2.205839 2.567244 0.276314
0.920857 1.311707 -0.065294
0.822316 0.867450 -0.041740
2.001814 2.574225 0.873773
2.218316 2.581765 0.620616
0.847538 1.198352 -0.025620
0.769184 0.888910 -0.034210
1.422735 1.816439 -0.645903
2.204668 2.547833 -0.673859
0.528867 0.675217 -0.133435
0.602372 0.696133 -0.117177
0.829176 1.172388 0.008346
0.774731 0.895321 -0.006881
0.745502 0.951800 -0.130230
